ply
format ascii 1.0
element vertex 677
property float x
property float y
property float z
property float nx
property float ny
property float nz
property uchar red
property uchar green
property uchar blue
property float opacity
element face 0
property list uchar int vertex_indices
end_header
0.344959 -0.711710 0.486280 0.000000 0.000000 -1.000000 159 191 89 1
-0.350063 -0.154586 0.465416 -1.000000 0.000000 0.000000 159 191 89 1
0.370044 -0.094756 -0.030041 -1.000000 0.000000 0.000000 159 4 237 1
-0.003807 0.466707 -0.238135 -0.925448 0.000000 -0.378874 137 107 175 1
0.340993 0.743425 -0.266501 0.000000 1.000000 0.000000 223 228 22 1
-0.332822 -0.499716 0.426917 0.000000 -0.000000 1.000000 159 191 89 1
-0.002131 -0.009146 0.004800 0.000000 1.000000 0.000000 159 4 237 1
-0.064895 -0.120872 0.345851 0.000000 -1.000000 -0.000000 159 4 237 1
0.322256 -0.833389 -0.261891 0.000000 -1.000000 -0.000000 159 191 89 1
-0.246558 0.580883 -0.250046 1.000000 0.000000 0.000000 223 228 22 1
0.047226 0.111739 -0.279591 -0.041856 0.000000 -0.999124 137 107 175 1
-0.350063 -0.267244 0.478239 -1.000000 0.000000 0.000000 159 191 89 1
-0.297217 0.217666 -0.220504 0.000000 0.000000 -1.000000 223 228 22 1
0.370044 0.500849 -0.224427 1.000000 0.000000 0.000000 223 228 22 1
0.358583 0.043552 -0.220504 0.000000 -0.000000 1.000000 223 228 22 1
0.352264 -0.496236 -0.220504 0.000000 -0.000000 1.000000 159 191 89 1
-0.350063 -0.057634 -0.008909 1.000000 0.000000 0.000000 159 4 237 1
-0.320646 -0.346701 0.486280 0.000000 -0.000000 1.000000 159 191 89 1
-0.121769 -0.009146 0.380909 0.000000 1.000000 0.000000 159 4 237 1
0.345461 -0.208944 0.486280 0.000000 0.000000 -1.000000 159 191 89 1
0.368838 -0.009146 -0.139767 0.000000 -1.000000 -0.000000 159 4 237 1
0.128861 -0.088894 0.486280 0.000000 -0.000000 1.000000 159 4 237 1
-0.330282 -0.029795 -0.279866 0.000000 0.000000 -1.000000 159 4 237 1
-0.246558 0.563958 -0.220978 -1.000000 0.000000 0.000000 223 228 22 1
-0.218281 -0.009146 -0.195090 0.000000 1.000000 0.000000 159 4 237 1
0.242270 -0.120872 0.018950 0.000000 -1.000000 -0.000000 159 4 237 1
0.266539 0.298283 -0.256629 -1.000000 0.000000 0.000000 223 228 22 1
0.252507 -0.120872 0.187119 0.000000 1.000000 0.000000 159 4 237 1
0.117541 0.025333 -0.221812 0.293135 0.000000 -0.956071 159 4 237 1
-0.002792 0.690234 -0.220504 0.000000 0.000000 -1.000000 10 43 224 1
0.266539 0.456090 -0.269918 1.000000 0.000000 0.000000 223 228 22 1
0.279993 -0.120872 0.305564 0.000000 -1.000000 -0.000000 159 4 237 1
-0.185870 -0.111696 0.486280 0.000000 0.000000 -1.000000 159 4 237 1
-0.001911 0.345992 -0.256049 -0.983365 -0.000000 0.181638 137 107 175 1
-0.296097 -0.525958 -0.250859 1.000000 0.000000 0.000000 159 191 89 1
-0.193490 -0.009146 -0.197669 0.000000 -1.000000 -0.000000 159 4 237 1
0.365206 -0.120872 -0.068660 0.000000 -1.000000 -0.000000 159 4 237 1
0.352412 -0.179072 0.486280 0.000000 0.000000 -1.000000 159 191 89 1
-0.278989 -0.120872 0.292489 0.000000 -1.000000 -0.000000 159 4 237 1
-0.312737 -0.228679 0.486280 0.000000 -0.000000 1.000000 159 191 89 1
-0.040658 0.424666 -0.276386 -0.494516 0.000000 -0.869169 137 107 175 1
0.370044 -0.418635 0.445006 1.000000 0.000000 0.000000 159 191 89 1
-0.087150 0.511269 -0.272319 0.691924 0.000000 -0.721970 137 107 175 1
-0.253850 -0.009146 0.286260 0.000000 1.000000 0.000000 159 4 237 1
0.055305 0.005760 -0.221780 -0.285928 0.000000 -0.958251 159 4 237 1
-0.185840 -0.120872 0.125088 0.000000 -1.000000 -0.000000 159 4 237 1
-0.048523 -0.009146 0.118119 0.000000 -1.000000 -0.000000 159 4 237 1
0.370044 -0.193221 -0.260835 -1.000000 0.000000 0.000000 159 191 89 1
-0.208174 -0.120872 0.283321 0.000000 -1.000000 -0.000000 159 4 237 1
-0.267289 0.490210 -0.220504 0.000000 0.000000 -1.000000 223 228 22 1
-0.018778 -0.011219 0.486280 0.000000 0.000000 -1.000000 159 4 237 1
0.370044 -0.779781 0.462120 -1.000000 0.000000 0.000000 159 191 89 1
0.138200 0.653307 -0.279866 0.000000 0.000000 -1.000000 10 43 224 1
-0.350063 -0.281073 0.448946 1.000000 0.000000 0.000000 159 191 89 1
0.097440 -0.120872 0.100743 0.000000 1.000000 0.000000 159 4 237 1
0.370044 -0.009806 0.198200 -1.000000 0.000000 0.000000 159 4 237 1
-0.337665 -0.434176 -0.279866 0.000000 -0.000000 1.000000 159 191 89 1
-0.316436 -0.535391 -0.220504 0.000000 -0.000000 1.000000 159 191 89 1
0.064176 0.087124 -0.226445 -0.628129 0.000000 -0.778109 137 107 175 1
0.267936 0.380094 -0.279866 0.000000 0.000000 -1.000000 223 228 22 1
-0.001637 0.266619 -0.254021 -0.992940 -0.000000 0.118618 137 107 175 1
0.356224 0.436598 -0.279866 0.000000 -0.000000 1.000000 223 228 22 1
-0.061668 -0.120872 -0.135563 0.000000 -1.000000 -0.000000 159 4 237 1
0.120674 -0.120872 0.296808 0.000000 -1.000000 -0.000000 159 4 237 1
-0.111753 0.634700 -0.221745 0.282364 0.000000 -0.959307 10 43 224 1
0.068161 0.037374 -0.230526 -0.772808 0.000000 -0.634640 137 107 175 1
-0.350063 0.429302 -0.259328 1.000000 0.000000 0.000000 223 228 22 1
0.021476 0.583304 -0.250227 -0.999999 0.000000 -0.001211 137 107 175 1
0.178856 -0.120872 -0.145943 0.000000 -1.000000 -0.000000 159 4 237 1
-0.179100 -0.017684 -0.279866 0.000000 -0.000000 1.000000 159 4 237 1
-0.332436 -0.242291 0.426917 0.000000 0.000000 -1.000000 159 191 89 1
0.049051 -0.120872 0.064713 0.000000 -1.000000 -0.000000 159 4 237 1
-0.213955 -0.009146 0.250491 0.000000 1.000000 0.000000 159 4 237 1
0.186990 0.647902 -0.220504 0.000000 -0.000000 1.000000 10 43 224 1
-0.350063 -0.097322 0.143219 -1.000000 0.000000 0.000000 159 4 237 1
0.370044 -0.188986 0.466345 1.000000 0.000000 0.000000 159 191 89 1
0.215323 -0.009146 0.362761 0.000000 -1.000000 -0.000000 159 4 237 1
0.070486 0.595109 -0.266566 0.866957 0.000000 -0.498382 137 107 175 1
-0.089423 -0.009146 0.483741 0.000000 1.000000 0.000000 159 4 237 1
-0.276814 -0.082469 -0.279866 0.000000 0.000000 -1.000000 159 4 237 1
-0.013002 0.468196 -0.274604 -0.601875 -0.000000 0.798590 137 107 175 1
-0.009992 0.132350 -0.271673 0.714996 0.000000 -0.699128 137 107 175 1
-0.307566 0.275635 -0.279866 0.000000 -0.000000 1.000000 223 228 22 1
-0.350063 -0.116192 -0.083295 -1.000000 0.000000 0.000000 159 4 237 1
-0.350063 0.291140 -0.261962 -1.000000 0.000000 0.000000 223 228 22 1
-0.311001 -0.725930 -0.220504 0.000000 -0.000000 1.000000 159 191 89 1
-0.350063 -0.187777 -0.260731 1.000000 0.000000 0.000000 159 191 89 1
0.295584 0.047554 -0.220504 0.000000 -0.000000 1.000000 223 228 22 1
-0.103079 -0.009146 -0.184953 0.000000 1.000000 0.000000 159 4 237 1
-0.246558 0.467950 -0.234044 -1.000000 0.000000 0.000000 223 228 22 1
0.034702 -0.009146 -0.032033 0.000000 1.000000 0.000000 159 4 237 1
0.106020 -0.028375 0.486280 0.000000 -0.000000 1.000000 159 4 237 1
0.360412 0.024451 -0.279866 0.000000 -0.000000 1.000000 223 228 22 1
0.343612 -0.455411 0.486280 0.000000 -0.000000 1.000000 159 191 89 1
0.370044 -0.392070 -0.264974 1.000000 0.000000 0.000000 159 191 89 1
0.271835 -0.120872 -0.002601 0.000000 1.000000 0.000000 159 4 237 1
-0.212256 -0.120872 -0.230629 0.000000 -1.000000 -0.000000 159 4 237 1
-0.154928 -0.120872 0.129834 0.000000 1.000000 0.000000 159 4 237 1
-0.350063 -0.230483 -0.270642 -1.000000 0.000000 0.000000 159 191 89 1
0.185627 -0.052839 0.486280 0.000000 -0.000000 1.000000 159 4 237 1
0.368427 -0.833389 0.458998 0.000000 -1.000000 -0.000000 159 191 89 1
-0.350063 0.601278 -0.260105 1.000000 0.000000 0.000000 223 228 22 1
0.317089 0.227934 -0.279866 0.000000 -0.000000 1.000000 223 228 22 1
0.099173 0.005174 -0.241639 -0.963576 -0.000000 0.267435 159 4 237 1
-0.030869 0.028854 -0.279521 0.106079 -0.000000 0.994358 137 107 175 1
0.074917 -0.009146 -0.206092 0.000000 1.000000 0.000000 159 4 237 1
-0.118004 0.332074 -0.224578 0.527141 0.000000 -0.849778 137 107 175 1
-0.350063 -0.098027 -0.262237 1.000000 0.000000 0.000000 159 4 237 1
0.358209 -0.009146 0.285735 0.000000 1.000000 0.000000 159 4 237 1
0.337342 -0.359213 -0.220504 0.000000 -0.000000 1.000000 159 191 89 1
0.370044 -0.693177 -0.253401 1.000000 0.000000 0.000000 159 191 89 1
0.330631 -0.009146 0.405418 0.000000 1.000000 0.000000 159 4 237 1
0.341592 0.654771 -0.220504 0.000000 0.000000 -1.000000 223 228 22 1
0.332648 0.692835 -0.220504 0.000000 -0.000000 1.000000 223 228 22 1
0.027425 0.525234 -0.231353 0.802610 0.000000 -0.596503 137 107 175 1
-0.130625 -0.047975 -0.279866 0.000000 0.000000 -1.000000 159 4 237 1
-0.122257 -0.120872 0.124336 0.000000 -1.000000 -0.000000 159 4 237 1
0.223617 -0.009146 0.233382 0.000000 -1.000000 -0.000000 159 4 237 1
0.350493 -0.419717 0.486280 0.000000 -0.000000 1.000000 159 191 89 1
-0.333877 -0.120872 0.120518 0.000000 -1.000000 -0.000000 159 4 237 1
-0.131254 0.030179 -0.254876 0.989313 -0.000000 0.145811 137 107 175 1
-0.339812 -0.833389 -0.236644 0.000000 1.000000 0.000000 159 191 89 1
0.098165 0.636298 -0.245658 0.990199 0.000000 -0.139666 137 107 175 1
-0.296097 -0.466356 -0.262586 1.000000 0.000000 0.000000 159 191 89 1
-0.252190 0.085440 -0.279866 0.000000 0.000000 -1.000000 223 228 22 1
0.004128 0.709696 -0.264342 0.000000 -1.000000 -0.000000 10 43 224 1
0.134540 0.677690 -0.220504 0.000000 0.000000 -1.000000 10 43 224 1
-0.323759 -0.603803 -0.279866 0.000000 0.000000 -1.000000 159 191 89 1
-0.218707 -0.120872 0.145380 0.000000 1.000000 0.000000 159 4 237 1
0.027001 0.268995 -0.268246 0.816964 -0.000000 0.576688 137 107 175 1
-0.296097 -0.810506 0.471992 -1.000000 0.000000 0.000000 159 191 89 1
0.049688 -0.009146 -0.066380 0.000000 1.000000 0.000000 159 4 237 1
0.370044 -0.477713 -0.267773 1.000000 0.000000 0.000000 159 191 89 1
-0.199907 -0.120872 -0.153661 0.000000 -1.000000 -0.000000 159 4 237 1
0.286212 -0.120872 0.390292 0.000000 1.000000 0.000000 159 4 237 1
-0.335043 0.679214 -0.220504 0.000000 0.000000 -1.000000 223 228 22 1
0.370044 0.301206 -0.233804 -1.000000 0.000000 0.000000 223 228 22 1
-0.252000 -0.009146 0.438814 0.000000 1.000000 0.000000 159 4 237 1
0.256054 -0.034732 -0.279866 0.000000 0.000000 -1.000000 159 4 237 1
-0.350063 0.527093 -0.261697 -1.000000 0.000000 0.000000 223 228 22 1
0.036197 0.234645 -0.223910 -0.482869 -0.000000 0.875693 137 107 175 1
0.020893 -0.109419 -0.279866 0.000000 0.000000 -1.000000 159 4 237 1
0.172198 -0.120872 0.167306 0.000000 1.000000 0.000000 159 4 237 1
0.300570 -0.009146 0.147517 0.000000 -1.000000 -0.000000 159 4 237 1
0.370044 -0.655862 -0.237248 1.000000 0.000000 0.000000 159 191 89 1
-0.003326 0.152735 -0.239144 0.938639 -0.000000 0.344902 137 107 175 1
-0.084547 0.232388 -0.269677 0.781216 0.000000 -0.624260 137 107 175 1
0.370044 -0.090394 0.184328 1.000000 0.000000 0.000000 159 4 237 1
-0.290644 0.643794 -0.279866 0.000000 0.000000 -1.000000 223 228 22 1
0.370044 -0.536296 -0.252876 1.000000 0.000000 0.000000 159 191 89 1
-0.350063 -0.097907 0.430137 -1.000000 0.000000 0.000000 159 4 237 1
-0.083018 0.603176 -0.232750 -0.832959 0.000000 -0.553335 137 107 175 1
0.064751 -0.009146 0.442348 0.000000 -1.000000 -0.000000 159 4 237 1
0.316078 -0.282810 0.439511 -1.000000 0.000000 0.000000 159 191 89 1
-0.279695 -0.009146 0.127890 0.000000 -1.000000 -0.000000 159 4 237 1
-0.028153 -0.096781 -0.279866 0.000000 0.000000 -1.000000 159 4 237 1
0.294725 -0.074479 0.486280 0.000000 0.000000 -1.000000 159 4 237 1
0.266539 0.358155 -0.277797 -1.000000 0.000000 0.000000 223 228 22 1
0.106884 -0.120872 0.332577 0.000000 -1.000000 -0.000000 159 4 237 1
-0.246558 0.599042 -0.276348 -1.000000 0.000000 0.000000 223 228 22 1
-0.246558 0.115053 -0.252021 -1.000000 0.000000 0.000000 223 228 22 1
-0.165246 -0.120872 -0.141280 0.000000 1.000000 0.000000 159 4 237 1
0.066812 0.060509 -0.228917 -0.724145 0.000000 -0.689648 137 107 175 1
-0.246558 0.597599 -0.239029 1.000000 0.000000 0.000000 223 228 22 1
0.061561 -0.120872 0.482619 0.000000 -1.000000 -0.000000 159 4 237 1
0.269534 0.122051 -0.279866 0.000000 -0.000000 1.000000 223 228 22 1
0.071362 0.376822 -0.265042 -0.866957 -0.000000 0.498382 137 107 175 1
0.053826 -0.120872 0.360499 0.000000 1.000000 0.000000 159 4 237 1
0.370044 -0.062260 -0.020595 1.000000 0.000000 0.000000 159 4 237 1
-0.052613 0.086935 -0.237469 -0.915193 -0.000000 0.403016 137 107 175 1
-0.081947 0.008115 -0.234743 -0.871949 0.000000 -0.489596 137 107 175 1
0.149189 0.161067 -0.262772 -0.918305 -0.000000 0.395874 137 107 175 1
0.326871 -0.493610 -0.279866 0.000000 0.000000 -1.000000 159 191 89 1
0.067560 -0.120872 -0.021926 0.000000 -1.000000 -0.000000 159 4 237 1
0.356416 0.240000 -0.220504 0.000000 -0.000000 1.000000 223 228 22 1
0.023141 0.136665 -0.260879 -0.942875 0.000000 -0.333146 137 107 175 1
-0.053648 -0.009146 0.193297 0.000000 -1.000000 -0.000000 159 4 237 1
-0.081072 0.320853 -0.236579 0.902597 -0.000000 0.430487 137 107 175 1
0.029770 -0.120872 -0.013229 0.000000 1.000000 0.000000 159 4 237 1
0.344090 -0.830353 0.486280 0.000000 0.000000 -1.000000 159 191 89 1
-0.248741 -0.009146 0.136774 0.000000 1.000000 0.000000 159 4 237 1
-0.024299 -0.009146 0.210033 0.000000 -1.000000 -0.000000 159 4 237 1
0.074843 0.342601 -0.255163 0.988175 0.000000 -0.153329 137 107 175 1
0.108373 0.692660 -0.220504 0.000000 0.000000 -1.000000 10 43 224 1
0.258696 -0.056657 0.486280 0.000000 -0.000000 1.000000 159 4 237 1
-0.334953 -0.120872 0.025524 0.000000 -1.000000 -0.000000 159 4 237 1
-0.173216 -0.009146 0.110253 0.000000 -1.000000 -0.000000 159 4 237 1
-0.350063 -0.079168 0.201498 1.000000 0.000000 0.000000 159 4 237 1
0.021426 0.320587 -0.251581 -0.999073 0.000000 -0.043051 137 107 175 1
0.099210 -0.120872 -0.218592 0.000000 1.000000 0.000000 159 4 237 1
-0.246558 0.285772 -0.261667 1.000000 0.000000 0.000000 223 228 22 1
-0.350063 -0.640754 0.467999 1.000000 0.000000 0.000000 159 191 89 1
-0.296097 -0.121227 -0.229950 1.000000 0.000000 0.000000 159 4 237 1
0.253884 -0.009146 -0.143771 0.000000 1.000000 0.000000 159 4 237 1
-0.015539 -0.078804 0.486280 0.000000 0.000000 -1.000000 159 4 237 1
-0.085934 0.330278 -0.271084 -0.735374 -0.000000 0.677662 137 107 175 1
0.370044 -0.714056 0.467108 1.000000 0.000000 0.000000 159 191 89 1
-0.077106 0.709696 -0.256322 0.000000 -1.000000 -0.000000 10 43 224 1
-0.304793 -0.120872 0.239627 0.000000 -1.000000 -0.000000 159 4 237 1
0.211225 -0.009146 -0.134088 0.000000 -1.000000 -0.000000 159 4 237 1
0.231051 -0.120872 -0.007821 0.000000 -1.000000 -0.000000 159 4 237 1
-0.026985 -0.009146 0.304640 0.000000 1.000000 0.000000 159 4 237 1
0.316078 -0.338539 0.429924 1.000000 0.000000 0.000000 159 191 89 1
-0.112403 -0.037115 0.486280 0.000000 0.000000 -1.000000 159 4 237 1
0.059457 -0.009146 0.379020 0.000000 1.000000 0.000000 159 4 237 1
-0.127024 -0.009146 0.289486 0.000000 -1.000000 -0.000000 159 4 237 1
0.130506 -0.009146 0.373538 0.000000 1.000000 0.000000 159 4 237 1
0.322840 -0.000006 -0.220504 0.000000 0.000000 -1.000000 223 228 22 1
0.072505 0.137751 -0.263055 0.911360 0.000000 -0.411610 137 107 175 1
-0.296097 -0.710867 -0.232359 1.000000 0.000000 0.000000 159 191 89 1
-0.334123 -0.009146 0.162960 0.000000 -1.000000 -0.000000 159 4 237 1
0.338211 0.743425 -0.221268 0.000000 -1.000000 -0.000000 223 228 22 1
0.331810 -0.833389 0.453761 0.000000 -1.000000 -0.000000 159 191 89 1
0.347793 0.011141 -0.220504 0.000000 -0.000000 1.000000 223 228 22 1
-0.159148 0.642239 -0.255588 0.000000 1.000000 0.000000 10 43 224 1
0.370044 -0.813503 0.476362 1.000000 0.000000 0.000000 159 191 89 1
-0.296097 -0.194266 0.468660 1.000000 0.000000 0.000000 159 191 89 1
0.318550 -0.120872 -0.181433 0.000000 -1.000000 -0.000000 159 4 237 1
-0.350063 -0.024880 0.100070 -1.000000 0.000000 0.000000 159 4 237 1
-0.023347 0.540764 -0.221050 0.199465 -0.000000 0.979905 137 107 175 1
-0.317223 0.391106 -0.279866 0.000000 -0.000000 1.000000 223 228 22 1
-0.303750 0.232996 -0.279866 0.000000 -0.000000 1.000000 223 228 22 1
-0.089104 0.397708 -0.226281 -0.619698 0.000000 -0.784841 137 107 175 1
0.370044 0.367296 -0.238259 1.000000 0.000000 0.000000 223 228 22 1
-0.015131 -0.009146 -0.076448 0.000000 1.000000 0.000000 159 4 237 1
-0.026424 -0.009146 0.465712 0.000000 1.000000 0.000000 159 4 237 1
-0.089950 -0.009146 -0.081364 0.000000 -1.000000 -0.000000 159 4 237 1
0.340871 0.113483 -0.279866 0.000000 -0.000000 1.000000 223 228 22 1
-0.028410 0.621873 -0.279630 0.005563 -0.000000 0.999985 137 107 175 1
-0.173719 -0.009146 0.345137 0.000000 1.000000 0.000000 159 4 237 1
0.314598 0.161100 -0.220504 0.000000 -0.000000 1.000000 223 228 22 1
0.370044 0.152118 -0.245613 1.000000 0.000000 0.000000 223 228 22 1
0.338373 -0.120872 0.398536 0.000000 1.000000 0.000000 159 4 237 1
-0.187740 0.643939 -0.279866 0.000000 -0.000000 1.000000 10 43 224 1
-0.296097 -0.437270 -0.236437 1.000000 0.000000 0.000000 159 191 89 1
-0.332646 -0.270667 -0.279866 0.000000 -0.000000 1.000000 159 191 89 1
0.360144 0.197207 -0.220504 0.000000 -0.000000 1.000000 223 228 22 1
-0.159144 0.705531 -0.220504 0.000000 -0.000000 1.000000 10 43 224 1
-0.130406 0.338733 -0.259021 0.961367 -0.000000 0.275268 137 107 175 1
-0.094688 -0.009146 0.106743 0.000000 1.000000 0.000000 159 4 237 1
0.103330 0.321996 -0.232427 0.841369 0.000000 -0.540462 137 107 175 1
0.038936 0.693896 -0.279866 0.000000 -0.000000 1.000000 10 43 224 1
-0.125144 0.276296 -0.269317 0.787862 -0.000000 0.615851 137 107 175 1
-0.241337 -0.120872 0.151631 0.000000 1.000000 0.000000 159 4 237 1
0.057904 -0.009146 0.100038 0.000000 1.000000 0.000000 159 4 237 1
0.048732 0.546638 -0.279657 0.019796 0.000000 -0.999804 137 107 175 1
0.317372 0.417502 -0.279866 0.000000 0.000000 -1.000000 223 228 22 1
-0.296097 0.722696 -0.237069 1.000000 0.000000 0.000000 223 228 22 1
-0.060833 -0.120872 -0.275003 0.000000 -1.000000 -0.000000 159 4 237 1
0.316078 -0.271178 -0.221653 -1.000000 0.000000 0.000000 159 191 89 1
-0.110205 -0.120872 0.448613 0.000000 1.000000 0.000000 159 4 237 1
0.315834 0.161925 -0.279866 0.000000 -0.000000 1.000000 223 228 22 1
0.111665 -0.120872 -0.153644 0.000000 -1.000000 -0.000000 159 4 237 1
0.359982 -0.009146 -0.182313 0.000000 1.000000 0.000000 159 4 237 1
-0.332287 -0.120872 0.163812 0.000000 -1.000000 -0.000000 159 4 237 1
0.370044 -0.028912 0.166115 -1.000000 0.000000 0.000000 159 4 237 1
-0.081754 0.214662 -0.265168 0.866957 0.000000 -0.498382 137 107 175 1
-0.160483 -0.009146 -0.260227 0.000000 1.000000 0.000000 159 4 237 1
0.334092 -0.567841 0.426917 0.000000 -0.000000 1.000000 159 191 89 1
-0.005520 -0.120872 0.245419 0.000000 1.000000 0.000000 159 4 237 1
-0.263724 0.043151 -0.279866 0.000000 0.000000 -1.000000 223 228 22 1
0.309812 0.420478 -0.220504 0.000000 0.000000 -1.000000 223 228 22 1
-0.073979 -0.120872 0.463084 0.000000 1.000000 0.000000 159 4 237 1
0.066859 -0.026759 0.486280 0.000000 -0.000000 1.000000 159 4 237 1
0.366698 -0.145331 0.486280 0.000000 0.000000 -1.000000 159 191 89 1
-0.178698 -0.120872 -0.123060 0.000000 1.000000 0.000000 159 4 237 1
-0.035601 -0.009146 0.053797 0.000000 -1.000000 -0.000000 159 4 237 1
-0.054159 0.256818 -0.257676 -0.972292 0.000000 -0.233768 137 107 175 1
0.321455 -0.120872 0.124535 0.000000 1.000000 0.000000 159 4 237 1
-0.092371 -0.079401 0.486280 0.000000 -0.000000 1.000000 159 4 237 1
-0.105864 -0.009146 0.140311 0.000000 1.000000 0.000000 159 4 237 1
-0.312507 -0.120872 -0.137857 0.000000 -1.000000 -0.000000 159 4 237 1
0.370044 -0.150588 -0.254348 -1.000000 0.000000 0.000000 159 191 89 1
-0.350063 -0.106334 0.254821 -1.000000 0.000000 0.000000 159 4 237 1
-0.023327 -0.009146 0.353933 0.000000 -1.000000 -0.000000 159 4 237 1
-0.248148 -0.120872 0.335360 0.000000 1.000000 0.000000 159 4 237 1
-0.252160 -0.009146 0.032637 0.000000 1.000000 0.000000 159 4 237 1
0.000948 -0.120872 0.454530 0.000000 1.000000 0.000000 159 4 237 1
-0.299790 -0.798769 0.486280 0.000000 -0.000000 1.000000 159 191 89 1
-0.310787 -0.378121 -0.279866 0.000000 0.000000 -1.000000 159 191 89 1
-0.350063 -0.704332 0.443581 1.000000 0.000000 0.000000 159 191 89 1
0.299550 0.349807 -0.279866 0.000000 0.000000 -1.000000 223 228 22 1
0.304714 0.608193 -0.279866 0.000000 -0.000000 1.000000 223 228 22 1
0.073940 0.620834 -0.241720 0.964549 -0.000000 0.263902 137 107 175 1
-0.339645 -0.185172 0.426917 0.000000 0.000000 -1.000000 159 191 89 1
0.313457 0.097983 -0.279866 0.000000 -0.000000 1.000000 223 228 22 1
0.266539 0.269541 -0.278202 -1.000000 0.000000 0.000000 223 228 22 1
0.343799 0.567360 -0.220504 0.000000 -0.000000 1.000000 223 228 22 1
0.134494 -0.120872 0.327149 0.000000 1.000000 0.000000 159 4 237 1
-0.350063 -0.611785 -0.236028 -1.000000 0.000000 0.000000 159 191 89 1
-0.010187 -0.045633 0.486280 0.000000 -0.000000 1.000000 159 4 237 1
-0.349081 -0.120872 0.374032 0.000000 -1.000000 -0.000000 159 4 237 1
0.207271 -0.009146 0.405143 0.000000 1.000000 0.000000 159 4 237 1
-0.246558 0.358832 -0.262847 -1.000000 0.000000 0.000000 223 228 22 1
0.001524 -0.009146 0.328822 0.000000 -1.000000 -0.000000 159 4 237 1
0.279213 -0.120872 0.208767 0.000000 1.000000 0.000000 159 4 237 1
0.049168 -0.009146 0.406431 0.000000 -1.000000 -0.000000 159 4 237 1
-0.334811 -0.532193 -0.279866 0.000000 0.000000 -1.000000 159 191 89 1
-0.083106 0.145906 -0.267520 -0.855582 -0.000000 0.517667 137 107 175 1
0.370044 0.107273 -0.260898 1.000000 0.000000 0.000000 223 228 22 1
0.131748 -0.120872 0.224692 0.000000 1.000000 0.000000 159 4 237 1
-0.114692 0.459921 -0.277615 0.398422 -0.000000 0.917202 137 107 175 1
-0.322785 -0.120872 0.092362 0.000000 -1.000000 -0.000000 159 4 237 1
-0.319207 -0.716084 0.486280 0.000000 -0.000000 1.000000 159 191 89 1
0.111842 0.490077 -0.276008 0.515900 -0.000000 0.856649 137 107 175 1
-0.312446 -0.833389 -0.264892 0.000000 1.000000 0.000000 159 191 89 1
0.370044 -0.316845 0.448575 1.000000 0.000000 0.000000 159 191 89 1
-0.350063 -0.026851 0.277004 1.000000 0.000000 0.000000 159 4 237 1
0.068660 -0.033176 -0.279866 0.000000 -0.000000 1.000000 159 4 237 1
0.370044 -0.105406 0.005591 -1.000000 0.000000 0.000000 159 4 237 1
-0.051250 -0.120872 0.411890 0.000000 -1.000000 -0.000000 159 4 237 1
-0.296097 -0.538056 0.427980 -1.000000 0.000000 0.000000 159 191 89 1
0.241547 0.691323 -0.279866 0.000000 -0.000000 1.000000 10 43 224 1
0.302317 -0.120872 0.151969 0.000000 1.000000 0.000000 159 4 237 1
0.074841 0.023816 -0.255217 -0.987919 -0.000000 0.154972 137 107 175 1
0.073264 0.642036 -0.260803 -0.943113 -0.000000 0.332472 10 43 224 1
-0.333312 -0.161629 0.426917 0.000000 0.000000 -1.000000 159 191 89 1
-0.198439 -0.120872 0.209813 0.000000 -1.000000 -0.000000 159 4 237 1
0.209470 -0.044558 0.486280 0.000000 -0.000000 1.000000 159 4 237 1
0.044070 0.356793 -0.279451 0.169714 -0.000000 0.985493 137 107 175 1
0.137825 -0.009146 0.036988 0.000000 1.000000 0.000000 159 4 237 1
0.278535 -0.009146 -0.179488 0.000000 -1.000000 -0.000000 159 4 237 1
-0.350063 -0.795057 0.447295 -1.000000 0.000000 0.000000 159 191 89 1
-0.000393 -0.120872 0.064385 0.000000 1.000000 0.000000 159 4 237 1
-0.078051 0.259783 -0.251068 -0.999623 -0.000000 0.027454 137 107 175 1
-0.311087 0.628381 -0.220504 0.000000 0.000000 -1.000000 223 228 22 1
-0.063602 -0.120872 0.370846 0.000000 -1.000000 -0.000000 159 4 237 1
0.370044 -0.598178 -0.243866 1.000000 0.000000 0.000000 159 191 89 1
-0.196882 -0.011392 0.486280 0.000000 -0.000000 1.000000 159 4 237 1
0.348834 -0.026727 -0.279866 0.000000 0.000000 -1.000000 159 4 237 1
0.258746 -0.120872 0.137154 0.000000 1.000000 0.000000 159 4 237 1
-0.298507 -0.121178 0.486280 0.000000 -0.000000 1.000000 159 4 237 1
0.370044 0.493232 -0.260880 1.000000 0.000000 0.000000 223 228 22 1
-0.114210 0.423078 -0.277780 -0.379798 0.000000 -0.925069 137 107 175 1
-0.350063 -0.414390 0.445354 1.000000 0.000000 0.000000 159 191 89 1
-0.162888 -0.009146 0.246015 0.000000 -1.000000 -0.000000 159 4 237 1
0.031362 0.001153 -0.227287 0.663734 0.000000 -0.747969 137 107 175 1
0.316078 -0.771927 0.444238 1.000000 0.000000 0.000000 159 191 89 1
0.316078 -0.642527 -0.242256 1.000000 0.000000 0.000000 159 191 89 1
0.273347 -0.120872 -0.119993 0.000000 1.000000 0.000000 159 4 237 1
0.303622 0.709696 -0.220870 0.000000 1.000000 0.000000 223 228 22 1
-0.039064 -0.009146 -0.216403 0.000000 -1.000000 -0.000000 159 4 237 1
0.206687 -0.120872 0.392500 0.000000 -1.000000 -0.000000 159 4 237 1
0.315355 0.281969 -0.220504 0.000000 -0.000000 1.000000 223 228 22 1
0.249696 -0.009146 -0.245454 0.000000 1.000000 0.000000 223 228 22 1
-0.350063 0.111704 -0.239088 -1.000000 0.000000 0.000000 223 228 22 1
0.370044 -0.029866 -0.091767 1.000000 0.000000 0.000000 159 4 237 1
0.245229 -0.009146 0.040703 0.000000 -1.000000 -0.000000 159 4 237 1
-0.040841 -0.120872 -0.262466 0.000000 1.000000 0.000000 159 4 237 1
0.354423 -0.553771 0.486280 0.000000 0.000000 -1.000000 159 191 89 1
-0.350063 -0.062174 -0.177453 -1.000000 0.000000 0.000000 159 4 237 1
0.370044 -0.200937 -0.243935 1.000000 0.000000 0.000000 159 191 89 1
0.173224 -0.120872 0.275647 0.000000 1.000000 0.000000 159 4 237 1
-0.265820 -0.120872 0.365098 0.000000 1.000000 0.000000 159 4 237 1
-0.246558 0.199784 -0.262971 1.000000 0.000000 0.000000 223 228 22 1
0.217077 -0.009146 0.069823 0.000000 -1.000000 -0.000000 159 4 237 1
-0.313839 -0.833389 0.439283 0.000000 -1.000000 -0.000000 159 191 89 1
0.266539 0.221202 -0.224074 1.000000 0.000000 0.000000 223 228 22 1
-0.130272 0.233186 -0.259673 -0.955453 0.000000 -0.295142 137 107 175 1
0.334940 -0.408888 -0.220504 0.000000 -0.000000 1.000000 159 191 89 1
-0.056958 -0.120872 0.434654 0.000000 1.000000 0.000000 159 4 237 1
-0.350063 -0.105010 -0.105916 1.000000 0.000000 0.000000 159 4 237 1
0.324529 0.115303 -0.220504 0.000000 0.000000 -1.000000 223 228 22 1
-0.298139 -0.765780 -0.220504 0.000000 -0.000000 1.000000 159 191 89 1
0.370044 -0.705400 -0.237201 -1.000000 0.000000 0.000000 159 191 89 1
-0.058265 -0.009146 -0.044576 0.000000 -1.000000 -0.000000 159 4 237 1
0.316078 -0.739842 0.473466 1.000000 0.000000 0.000000 159 191 89 1
-0.287690 0.478934 -0.279866 0.000000 0.000000 -1.000000 223 228 22 1
0.266539 0.570397 -0.235424 1.000000 0.000000 0.000000 223 228 22 1
-0.330389 0.147189 -0.279866 0.000000 0.000000 -1.000000 223 228 22 1
0.370044 -0.029062 -0.006362 1.000000 0.000000 0.000000 159 4 237 1
0.289318 -0.120872 -0.279822 0.000000 1.000000 0.000000 159 4 237 1
-0.235352 -0.120872 0.188888 0.000000 -1.000000 -0.000000 159 4 237 1
-0.025694 -0.120872 0.110019 0.000000 1.000000 0.000000 159 4 237 1
-0.330579 -0.215948 -0.220504 0.000000 0.000000 -1.000000 159 191 89 1
0.350995 0.203531 -0.279866 0.000000 -0.000000 1.000000 223 228 22 1
-0.346156 0.647580 -0.220504 0.000000 0.000000 -1.000000 223 228 22 1
0.369204 -0.481055 0.426917 0.000000 -0.000000 1.000000 159 191 89 1
0.370044 0.048977 -0.268528 -1.000000 0.000000 0.000000 223 228 22 1
0.323273 -0.398478 0.426917 0.000000 0.000000 -1.000000 159 191 89 1
-0.296097 -0.476447 0.427127 1.000000 0.000000 0.000000 159 191 89 1
0.135952 -0.120872 0.260578 0.000000 -1.000000 -0.000000 159 4 237 1
-0.001452 0.169182 -0.248974 0.999303 -0.000000 0.037328 137 107 175 1
0.249115 -0.029317 0.486280 0.000000 0.000000 -1.000000 159 4 237 1
0.127748 -0.009146 0.256602 0.000000 1.000000 0.000000 159 4 237 1
-0.086248 0.456500 -0.271404 0.724401 0.000000 -0.689378 137 107 175 1
-0.052485 0.052536 -0.262756 -0.918131 0.000000 -0.396277 137 107 175 1
-0.246558 0.559154 -0.268920 1.000000 0.000000 0.000000 223 228 22 1
-0.048197 -0.076787 0.486280 0.000000 -0.000000 1.000000 159 4 237 1
-0.346587 -0.198362 -0.220504 0.000000 0.000000 -1.000000 159 191 89 1
-0.078233 -0.120872 0.167910 0.000000 -1.000000 -0.000000 159 4 237 1
-0.296097 -0.631281 -0.227179 1.000000 0.000000 0.000000 159 191 89 1
0.370044 -0.098407 -0.265816 -1.000000 0.000000 0.000000 159 4 237 1
-0.246558 0.410449 -0.253050 -1.000000 0.000000 0.000000 223 228 22 1
0.089685 -0.009146 0.372950 0.000000 1.000000 0.000000 159 4 237 1
0.241510 0.662387 -0.279866 0.000000 0.000000 -1.000000 10 43 224 1
-0.238136 -0.009146 0.000005 0.000000 1.000000 0.000000 159 4 237 1
-0.206834 -0.009146 -0.163232 0.000000 1.000000 0.000000 159 4 237 1
-0.246558 0.057894 -0.257148 -1.000000 0.000000 0.000000 223 228 22 1
0.298960 0.325650 -0.279866 0.000000 -0.000000 1.000000 223 228 22 1
0.370044 -0.118181 0.083555 -1.000000 0.000000 0.000000 159 4 237 1
0.333083 0.375480 -0.220504 0.000000 -0.000000 1.000000 223 228 22 1
0.065036 0.113526 -0.273189 -0.659747 -0.000000 0.751488 137 107 175 1
0.370044 -0.075374 0.151548 1.000000 0.000000 0.000000 159 4 237 1
0.298088 -0.009146 0.484229 0.000000 1.000000 0.000000 159 4 237 1
-0.043083 0.265804 -0.225502 0.585799 0.000000 -0.810456 137 107 175 1
0.364773 -0.236814 0.486280 0.000000 -0.000000 1.000000 159 191 89 1
0.299890 -0.120872 0.376746 0.000000 -1.000000 -0.000000 159 4 237 1
-0.313645 -0.277386 -0.279866 0.000000 -0.000000 1.000000 159 191 89 1
0.310668 0.567294 -0.220504 0.000000 -0.000000 1.000000 223 228 22 1
0.307116 -0.009146 0.211766 0.000000 1.000000 0.000000 159 4 237 1
-0.041320 -0.120872 0.334636 0.000000 -1.000000 -0.000000 159 4 237 1
-0.024482 -0.009146 0.422053 0.000000 1.000000 0.000000 159 4 237 1
0.316078 -0.275682 0.467522 1.000000 0.000000 0.000000 159 191 89 1
-0.299772 0.210886 -0.279866 0.000000 0.000000 -1.000000 223 228 22 1
-0.132046 -0.120872 -0.132844 0.000000 -1.000000 -0.000000 159 4 237 1
0.151515 0.583840 -0.251062 -0.999628 -0.000000 0.027280 137 107 175 1
-0.264436 -0.120872 0.008874 0.000000 1.000000 0.000000 159 4 237 1
-0.131980 -0.009146 -0.187085 0.000000 -1.000000 -0.000000 159 4 237 1
-0.192229 -0.009146 -0.008437 0.000000 -1.000000 -0.000000 159 4 237 1
0.276883 -0.120872 -0.139227 0.000000 1.000000 0.000000 159 4 237 1
0.319304 -0.573947 -0.220504 0.000000 -0.000000 1.000000 159 191 89 1
0.041157 -0.009146 0.116240 0.000000 -1.000000 -0.000000 159 4 237 1
-0.311030 -0.666787 -0.220504 0.000000 -0.000000 1.000000 159 191 89 1
0.062183 0.155446 -0.225059 -0.554606 0.000000 -0.832113 137 107 175 1
-0.122605 0.176653 -0.272344 0.695622 -0.000000 0.718408 137 107 175 1
-0.296097 -0.465195 -0.236451 1.000000 0.000000 0.000000 159 191 89 1
-0.333591 -0.286337 -0.220504 0.000000 0.000000 -1.000000 159 191 89 1
0.021709 0.200880 -0.254482 -0.991064 0.000000 -0.133388 137 107 175 1
0.324593 -0.129073 0.426917 0.000000 0.000000 -1.000000 159 191 89 1
-0.041386 0.147381 -0.224523 -0.523527 -0.000000 0.852009 137 107 175 1
-0.080014 0.627173 -0.261632 -0.933730 -0.000000 0.357978 10 43 224 1
0.035894 0.298128 -0.224085 0.494591 0.000000 -0.869126 137 107 175 1
0.370044 -0.513914 0.437437 -1.000000 0.000000 0.000000 159 191 89 1
0.139026 0.452666 -0.225282 -0.566800 0.000000 -0.823855 137 107 175 1
0.325396 -0.153315 0.486280 0.000000 0.000000 -1.000000 159 191 89 1
0.359810 -0.445061 -0.279866 0.000000 -0.000000 1.000000 159 191 89 1
-0.020753 -0.120872 -0.106721 0.000000 1.000000 0.000000 159 4 237 1
-0.149098 -0.009146 0.019714 0.000000 -1.000000 -0.000000 159 4 237 1
-0.308117 -0.009146 0.427341 0.000000 1.000000 0.000000 159 4 237 1
0.370044 0.431612 -0.249363 1.000000 0.000000 0.000000 223 228 22 1
0.162604 -0.009146 0.248931 0.000000 -1.000000 -0.000000 159 4 237 1
-0.243167 0.683272 -0.279866 0.000000 0.000000 -1.000000 223 228 22 1
-0.266670 0.149415 -0.220504 0.000000 -0.000000 1.000000 223 228 22 1
0.166132 -0.009146 0.292546 0.000000 -1.000000 -0.000000 159 4 237 1
-0.296097 -0.224973 0.452999 -1.000000 0.000000 0.000000 159 191 89 1
-0.296097 -0.397049 -0.228843 -1.000000 0.000000 0.000000 159 191 89 1
-0.306489 0.691517 -0.220504 0.000000 -0.000000 1.000000 223 228 22 1
0.032835 -0.120872 -0.036798 0.000000 1.000000 0.000000 159 4 237 1
-0.102118 0.709696 -0.228765 0.000000 -1.000000 -0.000000 10 43 224 1
-0.336172 0.556742 -0.220504 0.000000 -0.000000 1.000000 223 228 22 1
-0.316760 -0.477249 -0.220504 0.000000 -0.000000 1.000000 159 191 89 1
0.334071 0.449787 -0.220504 0.000000 0.000000 -1.000000 223 228 22 1
0.090558 -0.009146 0.097832 0.000000 -1.000000 -0.000000 159 4 237 1
0.083779 -0.120872 0.467890 0.000000 -1.000000 -0.000000 159 4 237 1
0.369373 -0.395773 -0.220504 0.000000 0.000000 -1.000000 159 191 89 1
-0.246558 0.244447 -0.223672 1.000000 0.000000 0.000000 223 228 22 1
0.370044 -0.628142 0.451630 1.000000 0.000000 0.000000 159 191 89 1
-0.263063 0.000699 -0.279866 0.000000 -0.000000 1.000000 159 4 237 1
-0.080889 0.540630 -0.263663 0.895521 0.000000 -0.445019 137 107 175 1
-0.296097 -0.418833 0.444703 -1.000000 0.000000 0.000000 159 191 89 1
0.266539 0.057615 -0.267722 -1.000000 0.000000 0.000000 223 228 22 1
0.242267 -0.009146 0.356633 0.000000 -1.000000 -0.000000 159 4 237 1
-0.337576 0.370215 -0.279866 0.000000 -0.000000 1.000000 223 228 22 1
0.104650 -0.120872 0.400667 0.000000 1.000000 0.000000 159 4 237 1
-0.312396 0.729423 -0.279866 0.000000 0.000000 -1.000000 223 228 22 1
0.332652 -0.020121 0.486280 0.000000 -0.000000 1.000000 159 4 237 1
0.370044 0.096808 -0.229070 -1.000000 0.000000 0.000000 223 228 22 1
0.283013 0.104148 -0.279866 0.000000 -0.000000 1.000000 223 228 22 1
-0.350063 -0.068553 0.452776 -1.000000 0.000000 0.000000 159 4 237 1
-0.049228 0.665716 -0.220504 0.000000 0.000000 -1.000000 10 43 224 1
0.201574 -0.009146 -0.169491 0.000000 1.000000 0.000000 159 4 237 1
-0.185631 -0.009146 -0.246733 0.000000 -1.000000 -0.000000 159 4 237 1
0.366169 -0.264810 -0.220504 0.000000 0.000000 -1.000000 159 191 89 1
0.054017 -0.120872 0.141827 0.000000 1.000000 0.000000 159 4 237 1
-0.255705 0.215004 -0.279866 0.000000 0.000000 -1.000000 223 228 22 1
-0.314281 -0.202755 0.426917 0.000000 -0.000000 1.000000 159 191 89 1
0.351365 -0.833389 -0.237507 0.000000 -1.000000 -0.000000 159 191 89 1
0.076327 -0.120872 0.445970 0.000000 -1.000000 -0.000000 159 4 237 1
0.016566 -0.009146 0.091811 0.000000 -1.000000 -0.000000 159 4 237 1
-0.126702 -0.120872 0.286868 0.000000 1.000000 0.000000 159 4 237 1
0.304966 0.709298 -0.279866 0.000000 -0.000000 1.000000 223 228 22 1
0.021874 0.385798 -0.244382 -0.983727 -0.000000 0.179667 137 107 175 1
0.022325 0.622199 -0.242790 0.973015 0.000000 -0.230741 137 107 175 1
0.355223 -0.811237 -0.279866 0.000000 0.000000 -1.000000 159 191 89 1
-0.234825 -0.120872 -0.227191 0.000000 1.000000 0.000000 159 4 237 1
0.255026 -0.009146 0.295835 0.000000 -1.000000 -0.000000 159 4 237 1
0.077859 -0.120872 0.162853 0.000000 -1.000000 -0.000000 159 4 237 1
0.347481 -0.009146 -0.107810 0.000000 -1.000000 -0.000000 159 4 237 1
0.060771 0.457519 -0.224077 -0.499753 0.000000 -0.866168 137 107 175 1
-0.246633 -0.008542 -0.279866 0.000000 0.000000 -1.000000 159 4 237 1
0.161339 -0.009146 0.067434 0.000000 1.000000 0.000000 159 4 237 1
-0.047859 -0.009146 0.455860 0.000000 1.000000 0.000000 159 4 237 1
-0.253796 -0.040120 -0.279866 0.000000 0.000000 -1.000000 159 4 237 1
-0.201496 -0.120872 -0.092348 0.000000 -1.000000 -0.000000 159 4 237 1
-0.350063 -0.293101 0.483097 -1.000000 0.000000 0.000000 159 191 89 1
-0.004052 -0.120872 0.083615 0.000000 1.000000 0.000000 159 4 237 1
0.331570 -0.128030 0.486280 0.000000 -0.000000 1.000000 159 191 89 1
-0.119037 0.129273 -0.225175 0.565385 0.000000 -0.824827 137 107 175 1
-0.246558 0.124742 -0.230718 -1.000000 0.000000 0.000000 223 228 22 1
-0.350063 0.545170 -0.262904 1.000000 0.000000 0.000000 223 228 22 1
-0.028367 -0.120872 0.140175 0.000000 1.000000 0.000000 159 4 237 1
0.247867 -0.009146 0.096119 0.000000 1.000000 0.000000 159 4 237 1
-0.080006 -0.120872 -0.215298 0.000000 -1.000000 -0.000000 159 4 237 1
-0.070702 -0.120872 0.393725 0.000000 -1.000000 -0.000000 159 4 237 1
-0.091351 -0.009146 -0.026125 0.000000 1.000000 0.000000 159 4 237 1
-0.219629 -0.009146 0.393118 0.000000 -1.000000 -0.000000 159 4 237 1
-0.088142 -0.120872 0.212085 0.000000 1.000000 0.000000 159 4 237 1
-0.234210 -0.085276 0.486280 0.000000 0.000000 -1.000000 159 4 237 1
-0.059500 0.693497 -0.279866 0.000000 -0.000000 1.000000 10 43 224 1
-0.182265 -0.120872 0.159654 0.000000 1.000000 0.000000 159 4 237 1
-0.311083 0.524097 -0.220504 0.000000 0.000000 -1.000000 223 228 22 1
-0.187240 -0.074504 0.486280 0.000000 -0.000000 1.000000 159 4 237 1
-0.306862 -0.064037 -0.279866 0.000000 0.000000 -1.000000 159 4 237 1
0.316078 -0.793201 0.473700 1.000000 0.000000 0.000000 159 191 89 1
-0.060725 -0.009146 -0.026046 0.000000 1.000000 0.000000 159 4 237 1
0.028322 -0.120872 -0.072357 0.000000 -1.000000 -0.000000 159 4 237 1
-0.350063 -0.045208 0.234787 -1.000000 0.000000 0.000000 159 4 237 1
0.263191 -0.120872 -0.056728 0.000000 1.000000 0.000000 159 4 237 1
0.326393 -0.120872 0.302009 0.000000 -1.000000 -0.000000 159 4 237 1
-0.350063 0.461072 -0.235142 -1.000000 0.000000 0.000000 223 228 22 1
0.184321 -0.009146 0.337188 0.000000 1.000000 0.000000 159 4 237 1
-0.020520 0.111592 -0.278429 -0.313614 -0.000000 0.949551 137 107 175 1
-0.310507 -0.363871 0.426917 0.000000 0.000000 -1.000000 159 191 89 1
0.316078 -0.679399 0.455069 -1.000000 0.000000 0.000000 159 191 89 1
-0.001610 0.206293 -0.253279 0.995398 0.000000 -0.095827 137 107 175 1
0.335091 0.556416 -0.279866 0.000000 -0.000000 1.000000 223 228 22 1
0.350493 -0.401381 0.486280 0.000000 -0.000000 1.000000 159 191 89 1
-0.350063 -0.041084 0.106924 -1.000000 0.000000 0.000000 159 4 237 1
0.360317 -0.006221 -0.279866 0.000000 -0.000000 1.000000 159 4 237 1
0.370044 -0.042346 0.367881 1.000000 0.000000 0.000000 159 4 237 1
-0.033954 -0.009146 -0.021645 0.000000 1.000000 0.000000 159 4 237 1
0.370044 0.731445 -0.234259 -1.000000 0.000000 0.000000 223 228 22 1
0.239776 -0.009146 0.183902 0.000000 -1.000000 -0.000000 159 4 237 1
0.122143 0.099871 -0.279520 0.107359 -0.000000 0.994220 137 107 175 1
0.027323 -0.009146 -0.082342 0.000000 -1.000000 -0.000000 159 4 237 1
-0.350063 -0.460193 0.441731 1.000000 0.000000 0.000000 159 191 89 1
0.268974 -0.120872 0.036483 0.000000 -1.000000 -0.000000 159 4 237 1
-0.201695 -0.068629 -0.279866 0.000000 0.000000 -1.000000 159 4 237 1
0.316078 -0.827250 0.461041 -1.000000 0.000000 0.000000 159 191 89 1
0.148343 -0.009146 -0.107475 0.000000 -1.000000 -0.000000 159 4 237 1
0.292915 -0.120872 0.031280 0.000000 -1.000000 -0.000000 159 4 237 1
-0.310108 0.116560 -0.279866 0.000000 -0.000000 1.000000 223 228 22 1
0.336352 -0.796315 0.486280 0.000000 -0.000000 1.000000 159 191 89 1
0.329293 -0.274978 -0.279866 0.000000 -0.000000 1.000000 159 191 89 1
-0.211841 -0.009146 0.105969 0.000000 1.000000 0.000000 159 4 237 1
-0.031056 0.239595 -0.279513 -0.113654 0.000000 -0.993520 137 107 175 1
0.098043 0.548949 -0.248999 0.999320 0.000000 -0.036873 137 107 175 1
-0.246558 -0.006121 -0.253667 1.000000 0.000000 0.000000 159 4 237 1
0.352317 -0.297578 0.486280 0.000000 -0.000000 1.000000 159 191 89 1
0.118063 0.321231 -0.278708 0.272029 -0.000000 0.962289 137 107 175 1
0.056181 -0.009146 -0.109292 0.000000 1.000000 0.000000 159 4 237 1
-0.350063 -0.138203 0.471726 -1.000000 0.000000 0.000000 159 191 89 1
-0.090353 -0.009146 0.438983 0.000000 -1.000000 -0.000000 159 4 237 1
-0.246558 0.278216 -0.234592 -1.000000 0.000000 0.000000 223 228 22 1
0.028120 -0.009146 0.442447 0.000000 -1.000000 -0.000000 159 4 237 1
-0.308233 0.577833 -0.220504 0.000000 0.000000 -1.000000 223 228 22 1
-0.348081 0.628919 -0.220504 0.000000 -0.000000 1.000000 223 228 22 1
-0.004467 -0.034289 -0.279866 0.000000 0.000000 -1.000000 159 4 237 1
-0.350063 -0.037115 -0.189428 1.000000 0.000000 0.000000 159 4 237 1
-0.126429 0.391452 -0.232764 -0.852729 -0.000000 0.522353 137 107 175 1
-0.350063 -0.491909 0.443955 -1.000000 0.000000 0.000000 159 191 89 1
-0.119071 0.677989 -0.279866 0.000000 -0.000000 1.000000 10 43 224 1
0.308188 0.665075 -0.279866 0.000000 0.000000 -1.000000 223 228 22 1
-0.337489 -0.833389 -0.263661 0.000000 -1.000000 -0.000000 159 191 89 1
-0.002187 0.232135 -0.257023 0.977074 0.000000 -0.212902 137 107 175 1
-0.208436 -0.120872 0.310296 0.000000 -1.000000 -0.000000 159 4 237 1
0.027198 0.266384 -0.231748 0.817308 0.000000 -0.576201 137 107 175 1
-0.350063 -0.581460 -0.278432 -1.000000 0.000000 0.000000 159 191 89 1
-0.296097 -0.458913 0.427260 1.000000 0.000000 0.000000 159 191 89 1
0.024362 -0.009146 0.255838 0.000000 1.000000 0.000000 159 4 237 1
-0.095855 -0.009146 0.003173 0.000000 1.000000 0.000000 159 4 237 1
-0.324580 -0.670786 -0.279866 0.000000 -0.000000 1.000000 159 191 89 1
0.199311 -0.009146 0.146071 0.000000 -1.000000 -0.000000 159 4 237 1
-0.296935 -0.484263 0.486280 0.000000 -0.000000 1.000000 159 191 89 1
0.041924 0.097044 -0.221588 0.257029 0.000000 -0.966404 137 107 175 1
0.280580 0.623895 -0.220504 0.000000 0.000000 -1.000000 223 228 22 1
0.053097 0.336513 -0.279149 0.197026 0.000000 -0.980398 137 107 175 1
0.138980 -0.009146 0.217685 0.000000 1.000000 0.000000 159 4 237 1
-0.240575 -0.009146 -0.034590 0.000000 1.000000 0.000000 159 4 237 1
-0.350063 -0.349497 0.469315 1.000000 0.000000 0.000000 159 191 89 1
-0.065343 -0.120872 0.268493 0.000000 -1.000000 -0.000000 159 4 237 1
-0.350063 -0.056228 -0.270200 1.000000 0.000000 0.000000 159 4 237 1
0.214645 -0.024211 -0.279866 0.000000 0.000000 -1.000000 159 4 237 1
0.316078 -0.286434 -0.273105 -1.000000 0.000000 0.000000 159 191 89 1
0.335152 -0.120872 -0.209615 0.000000 1.000000 0.000000 159 191 89 1
-0.296097 -0.735578 -0.244437 -1.000000 0.000000 0.000000 159 191 89 1
-0.284440 0.639870 -0.220504 0.000000 0.000000 -1.000000 223 228 22 1
-0.345676 -0.183798 0.486280 0.000000 0.000000 -1.000000 159 191 89 1
0.053888 -0.120872 -0.262974 0.000000 1.000000 0.000000 159 4 237 1
0.350550 -0.057743 0.486280 0.000000 -0.000000 1.000000 159 4 237 1
-0.003656 0.598754 -0.262209 -0.926820 -0.000000 0.375506 137 107 175 1
0.057416 -0.120872 0.291758 0.000000 -1.000000 -0.000000 159 4 237 1
0.071301 -0.009146 -0.050984 0.000000 -1.000000 -0.000000 159 4 237 1
0.370044 0.611750 -0.245258 1.000000 0.000000 0.000000 223 228 22 1
0.043344 -0.009146 0.009017 0.000000 1.000000 0.000000 159 4 237 1
-0.093373 -0.120872 0.366833 0.000000 -1.000000 -0.000000 159 4 237 1
0.143014 0.370632 -0.228535 -0.712052 0.000000 -0.702127 137 107 175 1
0.120721 0.550879 -0.279457 0.164574 -0.000000 0.986365 137 107 175 1
0.055179 0.341427 -0.221737 -0.280853 0.000000 -0.959751 137 107 175 1
-0.055277 0.642239 -0.221906 0.000000 1.000000 0.000000 10 43 224 1
0.074756 0.057401 -0.245702 -0.990258 0.000000 -0.139247 137 107 175 1
0.032548 -0.009146 0.338317 0.000000 1.000000 0.000000 159 4 237 1
-0.104529 -0.120872 0.312676 0.000000 -1.000000 -0.000000 159 4 237 1
0.231634 -0.009146 0.120189 0.000000 -1.000000 -0.000000 159 4 237 1
-0.139347 -0.069902 -0.279866 0.000000 -0.000000 1.000000 159 4 237 1
0.312393 0.438471 -0.220504 0.000000 -0.000000 1.000000 223 228 22 1
0.370044 -0.224670 -0.239698 1.000000 0.000000 0.000000 159 191 89 1
-0.024594 0.011914 -0.220897 0.149599 -0.000000 0.988747 159 4 237 1
-0.093298 0.105215 -0.223363 0.458942 -0.000000 0.888466 137 107 175 1
-0.131644 0.632831 -0.252318 -0.997841 0.000000 -0.065673 10 43 224 1
-0.196269 -0.009146 0.249818 0.000000 -1.000000 -0.000000 159 4 237 1
0.068784 -0.120872 -0.096479 0.000000 1.000000 0.000000 159 4 237 1
-0.350063 -0.739881 0.482733 1.000000 0.000000 0.000000 159 191 89 1
-0.342916 0.127854 -0.279866 0.000000 0.000000 -1.000000 223 228 22 1
0.281192 0.493933 -0.220504 0.000000 0.000000 -1.000000 223 228 22 1
-0.103883 -0.009146 -0.166255 0.000000 -1.000000 -0.000000 159 4 237 1
-0.001777 0.367350 -0.245651 -0.990028 0.000000 -0.140874 137 107 175 1
-0.213141 -0.120872 0.441116 0.000000 1.000000 0.000000 159 4 237 1
-0.078946 -0.009146 -0.265474 0.000000 1.000000 0.000000 159 4 237 1
-0.330230 -0.112411 0.486280 0.000000 0.000000 -1.000000 159 4 237 1
0.246811 -0.009146 0.233968 0.000000 -1.000000 -0.000000 159 4 237 1
-0.013504 -0.009146 -0.158639 0.000000 -1.000000 -0.000000 159 4 237 1
0.316078 -0.212242 -0.242197 1.000000 0.000000 0.000000 159 191 89 1
0.234250 -0.009146 -0.188919 0.000000 -1.000000 -0.000000 159 4 237 1
0.370044 -0.105590 0.360071 -1.000000 0.000000 0.000000 159 4 237 1
-0.160637 0.709696 -0.237982 0.000000 -1.000000 -0.000000 10 43 224 1
-0.101637 -0.009146 0.315906 0.000000 -1.000000 -0.000000 159 4 237 1
-0.316727 0.249459 -0.220504 0.000000 0.000000 -1.000000 223 228 22 1
0.279969 -0.120872 0.122383 0.000000 -1.000000 -0.000000 159 4 237 1
0.026452 0.654083 -0.279866 0.000000 0.000000 -1.000000 10 43 224 1
-0.004337 -0.120872 -0.083708 0.000000 1.000000 0.000000 159 4 237 1
0.370044 -0.020415 -0.224127 -1.000000 0.000000 0.000000 159 4 237 1
0.359592 -0.009146 0.425139 0.000000 -1.000000 -0.000000 159 4 237 1
-0.140466 -0.120872 0.206765 0.000000 1.000000 0.000000 159 4 237 1
-0.263283 0.440847 -0.220504 0.000000 0.000000 -1.000000 223 228 22 1
-0.084307 -0.032603 -0.279866 0.000000 0.000000 -1.000000 159 4 237 1
0.050943 0.245387 -0.279683 -0.109255 -0.000000 0.994014 137 107 175 1
-0.246558 0.529454 -0.240987 -1.000000 0.000000 0.000000 223 228 22 1
-0.012328 0.401507 -0.274044 -0.627115 -0.000000 0.778927 137 107 175 1
-0.300441 -0.120872 0.185122 0.000000 1.000000 0.000000 159 4 237 1
-0.257185 -0.026652 0.486280 0.000000 0.000000 -1.000000 159 4 237 1
0.266581 0.129748 -0.220504 0.000000 0.000000 -1.000000 223 228 22 1
0.041555 -0.105296 0.486280 0.000000 -0.000000 1.000000 159 4 237 1
-0.317147 0.653370 -0.220504 0.000000 0.000000 -1.000000 223 228 22 1
0.370044 0.534425 -0.237728 1.000000 0.000000 0.000000 223 228 22 1
-0.305832 0.489950 -0.220504 0.000000 0.000000 -1.000000 223 228 22 1
-0.054664 0.610011 -0.244441 -0.984069 -0.000000 0.177787 137 107 175 1
-0.326554 0.181115 -0.279866 0.000000 0.000000 -1.000000 223 228 22 1
-0.011761 0.571063 -0.226851 0.648586 -0.000000 0.761141 137 107 175 1
-0.333646 0.133157 -0.220504 0.000000 0.000000 -1.000000 223 228 22 1
-0.076613 -0.009146 -0.234506 0.000000 1.000000 0.000000 137 107 175 1
0.370044 -0.155468 0.463627 -1.000000 0.000000 0.000000 159 191 89 1
-0.255692 0.306052 -0.220504 0.000000 0.000000 -1.000000 223 228 22 1
0.345318 0.403634 -0.279866 0.000000 0.000000 -1.000000 223 228 22 1
-0.312363 0.148679 -0.220504 0.000000 0.000000 -1.000000 223 228 22 1
0.142607 0.504523 -0.272124 0.698958 0.000000 -0.715163 137 107 175 1
-0.107440 0.166306 -0.279519 0.108062 -0.000000 0.994144 137 107 175 1
0.370044 -0.174415 0.440784 1.000000 0.000000 0.000000 159 191 89 1
0.368605 -0.009146 0.384500 0.000000 -1.000000 -0.000000 159 4 237 1
0.316078 -0.679425 -0.259877 1.000000 0.000000 0.000000 159 191 89 1
-0.330085 -0.718148 -0.220504 0.000000 0.000000 -1.000000 159 191 89 1
-0.276632 -0.009146 0.046270 0.000000 1.000000 0.000000 159 4 237 1
-0.089845 0.355618 -0.225765 -0.592727 0.000000 -0.805403 137 107 175 1
-0.350063 0.307293 -0.231105 -1.000000 0.000000 0.000000 223 228 22 1
0.370044 -0.295302 0.472682 -1.000000 0.000000 0.000000 159 191 89 1
-0.025830 0.523570 -0.220842 -0.099641 0.000000 -0.995023 137 107 175 1
-0.015330 0.344947 -0.224369 0.516260 -0.000000 0.856432 137 107 175 1
0.263826 0.642239 -0.238789 0.000000 1.000000 0.000000 10 43 224 1
0.333769 -0.120872 0.363454 0.000000 1.000000 0.000000 159 4 237 1
-0.130006 0.427035 -0.240274 0.950577 0.000000 -0.310489 137 107 175 1
-0.239057 -0.062120 0.486280 0.000000 -0.000000 1.000000 159 4 237 1
0.353191 -0.120872 0.121322 0.000000 -1.000000 -0.000000 159 4 237 1
0.174523 0.691593 -0.279866 0.000000 -0.000000 1.000000 10 43 224 1
-0.166274 -0.120872 -0.026318 0.000000 -1.000000 -0.000000 159 4 237 1
-0.350063 0.573115 -0.249882 -1.000000 0.000000 0.000000 223 228 22 1
0.214704 0.642908 -0.279866 0.000000 -0.000000 1.000000 10 43 224 1
