ply
format ascii 1.0
element vertex 676
property float x
property float y
property float z
property float nx
property float ny
property float nz
property uchar red
property uchar green
property uchar blue
property float opacity
element face 0
property list uchar int vertex_indices
end_header
-0.516348 -0.598865 0.280955 -0.910869 0.287621 0.295959 37 150 178 1
0.002495 0.535905 -0.423907 0.000000 0.244453 0.969661 137 107 175 1
0.237888 0.038782 -0.295564 0.000000 -0.994522 0.104529 10 43 224 1
0.167870 0.194214 -0.309993 -0.207450 0.151418 0.966456 137 107 175 1
0.017291 0.026838 -0.057482 0.000460 0.998309 -0.058132 159 4 237 1
0.264104 -0.640838 -0.278821 0.809017 -0.000000 0.587785 37 150 178 1
0.006073 0.734312 -0.430995 -0.004913 0.362470 0.931982 10 43 224 1
-0.329222 -0.022565 0.318659 0.000000 0.999054 -0.043496 159 4 237 1
-0.375756 0.061794 -0.297162 0.939693 0.000000 -0.342020 223 228 22 1
-0.322245 -0.651688 -0.315019 0.000000 1.000000 0.000000 37 150 178 1
-0.206497 -0.011667 0.512244 0.056013 0.003746 0.998423 159 4 237 1
0.355070 -0.098211 0.336340 -0.000000 -0.999014 0.044399 157 83 134 1
-0.187720 -0.090880 0.499782 0.000000 -1.000000 -0.000000 157 83 134 1
-0.342381 0.520659 -0.365737 0.939693 0.000000 -0.342020 223 228 22 1
-0.000888 0.136872 -0.338465 0.000000 0.994522 -0.104528 137 107 175 1
0.294313 -0.034837 0.036796 0.000000 0.999054 -0.043496 159 4 237 1
0.218934 0.038891 0.219356 0.013202 0.999119 -0.039827 159 4 237 1
0.335331 -0.633922 -0.283597 -0.809017 0.000000 -0.587785 37 150 178 1
0.163020 0.457512 -0.389596 0.205601 -0.232429 -0.950634 137 107 175 1
0.435809 0.403732 0.106258 0.939095 -0.339948 -0.050364 175 213 5 1
-0.269968 0.624719 -0.379829 0.304673 0.248181 0.919555 137 107 175 1
0.279542 0.798451 -0.409233 0.302143 -0.485241 -0.820519 10 43 224 1
-0.365797 -0.116107 -0.324933 0.341760 -0.038963 0.938979 223 228 22 1
0.325021 -0.090880 0.489010 0.000000 -1.000000 -0.000000 157 83 134 1
0.450607 0.377693 0.053389 0.000000 1.000000 0.000000 175 213 5 1
-0.105188 -0.042231 -0.133047 0.000000 0.999054 -0.043496 159 4 237 1
0.356545 0.116768 -0.231243 -0.939693 0.000000 -0.342020 223 228 22 1
-0.069864 -0.651688 0.031651 0.000000 -1.000000 -0.000000 37 150 178 1
-0.191109 0.724972 -0.434500 -0.018121 -0.999834 0.001897 137 107 175 1
0.438067 0.345859 0.161419 0.000000 0.000000 -1.000000 191 252 191 1
0.335468 0.452216 -0.333607 -0.939693 0.000000 -0.342020 223 228 22 1
-0.150156 -0.544669 -0.120147 0.010255 -0.999848 0.014115 37 150 178 1
0.052994 -0.042993 -0.150539 0.000000 0.999054 -0.043496 159 4 237 1
-0.047790 0.009847 0.512244 -0.135010 -0.045712 -0.989789 159 4 237 1
0.245708 0.151346 -0.283754 -0.308858 0.114746 0.944161 10 43 224 1
-0.193802 -0.593743 -0.188430 0.809017 0.000000 -0.587785 37 150 178 1
-0.010578 0.046405 0.391944 0.001121 -0.999596 0.028415 159 4 237 1
-0.150215 -0.544669 0.173627 -0.007974 0.999965 0.002591 37 150 178 1
0.393521 0.822312 -0.387560 0.132570 -0.921824 -0.364233 223 228 22 1
0.045458 0.803662 -0.469290 -0.027100 0.927347 0.373219 10 43 224 1
-0.350335 0.655946 -0.387592 0.939693 0.000000 -0.342020 223 228 22 1
-0.377912 0.217953 0.171688 0.987288 0.158939 0.000000 191 252 191 1
0.175570 -0.589702 0.155606 0.309017 0.000000 -0.951057 37 150 178 1
0.329225 -0.564313 0.205532 0.309017 0.000000 -0.951057 37 150 178 1
0.050312 -0.651688 0.152693 0.000000 1.000000 0.000000 37 150 178 1
0.277296 0.028622 -0.016502 0.018245 0.998297 -0.055415 159 4 237 1
-0.065593 0.311155 -0.368797 -0.103783 -0.204818 -0.973282 137 107 175 1
0.140571 -0.035935 0.011583 0.000000 -0.999054 0.043496 159 4 237 1
0.262714 0.739761 -0.390661 -0.294577 0.348125 0.889963 10 43 224 1
-0.080515 0.513056 -0.391518 0.103254 0.240691 0.965094 137 107 175 1
0.071788 0.035495 0.141359 0.003371 0.998982 -0.044989 159 4 237 1
-0.206326 0.112938 -0.286226 -0.232559 -0.101663 -0.967254 10 43 224 1
-0.373660 0.014677 0.185117 0.915942 -0.399091 -0.042139 159 4 237 1
-0.247046 -0.566518 -0.261714 0.809017 0.000000 -0.587785 37 150 178 1
0.058504 -0.634845 0.004164 -0.809017 0.000000 -0.587785 37 150 178 1
0.190089 -0.611004 -0.176947 -0.809017 0.000000 -0.587785 37 150 178 1
0.273988 0.536001 -0.380327 -0.305106 0.239825 0.921626 137 107 175 1
-0.460401 0.424877 -0.169464 -0.915502 -0.331407 -0.228093 175 213 5 1
-0.044718 -0.446520 0.138831 -0.975085 -0.000000 0.221833 26 106 177 1
0.011041 -0.544669 0.267348 0.000000 -0.999975 -0.007011 37 150 178 1
-0.070795 -0.043633 -0.165241 0.000000 0.999054 -0.043496 159 4 237 1
-0.282278 -0.707129 -0.301157 0.583187 0.124840 0.802688 173 54 68 1
-0.325755 -0.097074 0.314665 0.998843 -0.000000 0.048082 157 83 134 1
0.240900 0.020443 -0.196382 -0.050771 -0.993350 0.103334 159 4 237 1
-0.153038 0.700430 -0.444514 0.000000 -0.965926 0.258819 10 43 224 1
0.380275 -0.544669 0.256177 -0.023715 -0.999689 -0.007705 37 150 178 1
-0.369760 0.803805 -0.374816 0.300559 0.477234 0.825779 223 228 22 1
-0.109263 0.635525 -0.419890 0.103038 0.253109 0.961935 137 107 175 1
0.311795 -0.642754 0.257506 0.309017 0.000000 -0.951057 37 150 178 1
-0.166489 0.090218 -0.292654 -0.188116 -0.102662 -0.976767 10 43 224 1
0.274624 0.434432 -0.354429 0.305764 -0.226184 -0.924851 137 107 175 1
0.403452 0.404027 -0.205622 0.891280 -0.322639 -0.318629 175 213 5 1
-0.270656 0.022281 -0.162168 -0.018978 0.997703 -0.065034 159 4 237 1
0.014239 0.582827 -0.435860 0.000000 0.249355 0.968412 137 107 175 1
0.388753 0.442075 -0.319733 0.939693 -0.000000 0.342020 223 228 22 1
0.300955 0.718540 -0.404300 0.951057 0.026933 0.307841 10 43 224 1
-0.009327 -0.014137 0.458607 0.000000 -1.000000 -0.000000 159 4 237 1
-0.064524 0.031259 0.044062 -0.005629 0.998661 -0.051421 159 4 237 1
0.129863 -0.614007 0.198393 0.309017 0.000000 -0.951057 37 150 178 1
0.332354 -0.022659 0.316498 0.000000 0.999054 -0.043496 159 4 237 1
0.383611 -0.070551 0.394137 -0.998843 -0.000000 0.048096 157 83 134 1
-0.201841 0.034625 0.121377 0.013843 -0.998831 0.046306 159 4 237 1
0.374280 0.320177 -0.279968 0.939693 -0.000000 0.342020 223 228 22 1
-0.059888 -0.555400 0.089145 -0.809017 -0.000000 0.587785 37 150 178 1
0.114232 0.036051 0.154116 -0.006249 -0.999006 0.044144 159 4 237 1
-0.369687 -0.151246 -0.280488 0.939693 0.000000 -0.342020 223 228 22 1
0.383559 0.275720 -0.305463 0.939693 -0.000000 0.342020 223 228 22 1
0.474176 0.448954 0.110916 0.000000 1.000000 0.000000 175 213 5 1
0.271081 0.717972 -0.379724 -0.305164 0.334138 0.891755 10 43 224 1
0.372755 -0.045098 -0.275779 0.939693 -0.000000 0.342020 223 228 22 1
-0.362000 -0.009325 0.162672 -0.999960 -0.008935 -0.000000 191 252 191 1
-0.228916 -0.037048 -0.013998 0.000000 -0.999054 0.043496 159 4 237 1
-0.018578 -0.479445 0.084801 0.434328 -0.000000 0.900755 26 106 177 1
0.197868 0.026242 -0.071183 0.012993 0.998172 -0.059032 159 4 237 1
0.368925 0.291273 -0.265257 0.939693 -0.000000 0.342020 223 228 22 1
-0.096702 0.679043 -0.455596 -0.102980 -0.256216 -0.961118 137 107 175 1
0.264307 -0.028309 0.186737 0.000000 -0.999054 0.043496 159 4 237 1
0.358972 0.439753 -0.301978 0.710113 -0.257058 -0.655486 175 213 5 1
0.378906 -0.036504 0.296427 0.998843 0.000000 -0.048096 157 83 134 1
0.238364 0.041462 0.278401 0.014290 0.999252 -0.035922 159 4 237 1
-0.087835 0.720803 -0.444890 0.102968 0.256861 0.960947 137 107 175 1
0.386427 -0.031630 0.501280 0.000000 -0.000000 1.000000 157 83 134 1
-0.353179 0.070759 -0.235132 -0.939693 -0.000000 0.342020 223 228 22 1
0.213161 0.030384 0.023970 0.013642 0.998515 -0.052745 159 4 237 1
-0.352794 0.050111 0.483739 0.048749 -0.998799 -0.004951 159 4 237 1
0.335854 0.019114 -0.334666 0.939693 -0.000000 0.342020 223 228 22 1
0.365591 -0.092265 0.470125 -0.000000 -0.999014 0.044399 157 83 134 1
-0.001074 0.656188 -0.455019 0.000000 0.255802 0.966729 137 107 175 1
-0.088623 0.489489 -0.407529 -0.103294 -0.238345 -0.965672 137 107 175 1
0.295972 0.038470 0.209682 -0.018564 -0.999009 0.040464 159 4 237 1
0.305174 0.104789 -0.239208 0.341709 -0.042662 -0.938837 223 228 22 1
0.391725 0.016971 0.387526 -0.843542 -0.148821 -0.516033 159 4 237 1
0.243626 -0.544669 0.212014 -0.014293 -0.999887 -0.004644 37 150 178 1
0.007793 0.444930 -0.401510 0.000000 -0.232693 -0.972550 137 107 175 1
0.038282 0.031112 0.040679 0.001489 0.998664 -0.051645 159 4 237 1
0.079585 0.119485 -0.308395 0.086119 -0.104141 -0.990827 10 43 224 1
-0.109715 -0.026693 0.223859 0.000000 -0.999054 0.043496 159 4 237 1
-0.207351 -0.574316 0.167437 -0.309017 0.000000 -0.951057 37 150 178 1
0.186143 -0.036606 -0.003843 0.000000 -0.999054 0.043496 159 4 237 1
0.286408 0.040005 -0.283922 0.000000 -0.994522 0.104529 10 43 224 1
-0.091875 0.298688 -0.340881 0.103845 0.199843 0.974309 137 107 175 1
0.415851 0.400637 -0.156650 -0.922798 0.334048 0.191976 175 213 5 1
-0.300024 -0.022938 0.310092 0.000000 -0.999054 0.043496 159 4 237 1
0.294989 0.025001 -0.099676 0.019822 0.997947 -0.060907 159 4 237 1
-0.335223 0.390358 -0.303277 0.707927 0.256266 0.658155 175 213 5 1
0.293992 0.021047 -0.190490 -0.020141 -0.997556 0.066902 159 4 237 1
-0.478524 0.424615 0.036520 0.939105 0.339951 0.050156 175 213 5 1
-0.047915 -0.576311 0.105626 -0.809017 -0.000000 0.587785 37 150 178 1
0.367184 -0.095208 0.403911 -0.000000 -0.999014 0.044399 157 83 134 1
-0.178833 0.681483 -0.443191 0.204831 0.254862 0.945034 137 107 175 1
0.138506 0.108993 -0.343198 -0.144954 0.103425 0.984018 10 43 224 1
0.349366 -0.107827 -0.332303 0.341802 0.035713 -0.939093 223 228 22 1
0.149385 -0.544669 0.153197 0.007219 0.999971 0.002346 37 150 178 1
-0.025093 -0.611502 0.650939 1.000000 0.000000 0.000000 37 150 178 1
-0.276389 0.553007 -0.358626 -0.305040 -0.241125 -0.921308 137 107 175 1
-0.192845 0.397835 -0.344853 0.205930 0.221663 0.953131 137 107 175 1
-0.025093 -0.616143 0.174899 1.000000 0.000000 0.000000 37 150 178 1
0.088741 0.539248 -0.420456 0.103193 -0.244323 -0.964188 137 107 175 1
-0.404786 -0.570305 0.289225 0.309017 -0.000000 0.951057 37 150 178 1
0.349445 -0.028158 0.190211 0.000000 0.999054 -0.043496 159 4 237 1
-0.150551 0.192539 -0.334664 0.978148 -0.018121 -0.207121 137 107 175 1
0.371521 -0.047448 0.143062 0.998843 0.000000 -0.048096 157 83 134 1
-0.119989 -0.561812 0.006425 0.809017 0.000000 -0.587785 37 150 178 1
0.271390 0.049969 0.473799 -0.016425 -0.999601 0.022998 159 4 237 1
0.120614 0.027613 0.511456 0.301752 0.344787 0.888857 159 4 237 1
0.261541 -0.651688 -0.236266 0.000000 1.000000 0.000000 37 150 178 1
-0.433600 0.396475 0.205752 0.939194 0.339984 0.048222 175 213 5 1
0.026186 -0.489645 0.086034 0.493263 0.000000 -0.869880 26 106 177 1
0.325309 -0.049207 0.209228 -0.998843 -0.000000 0.048082 157 83 134 1
-0.334231 0.566040 -0.343347 -0.939693 -0.000000 0.342020 223 228 22 1
-0.287447 -0.651688 -0.313390 0.000000 1.000000 0.000000 37 150 178 1
-0.373631 0.117310 -0.291324 -0.939693 -0.000000 0.342020 223 228 22 1
0.280295 -0.611492 -0.301105 -0.809017 0.000000 -0.587785 37 150 178 1
0.185543 -0.038965 0.501280 0.000000 0.000000 -1.000000 157 83 134 1
0.438060 0.393509 0.223582 -0.939212 0.339990 0.047838 175 213 5 1
0.172541 0.046326 0.390136 -0.010067 -0.999542 0.028533 159 4 237 1
0.286244 0.031018 0.038530 0.018627 0.998485 -0.051778 159 4 237 1
0.149902 -0.056556 0.451946 0.000000 -0.000000 1.000000 157 83 134 1
-0.122263 -0.566601 -0.089964 -0.809017 -0.000000 0.587785 37 150 178 1
0.175262 0.396159 -0.349260 0.205937 -0.221433 -0.953183 137 107 175 1
0.254338 0.047935 0.427087 -0.015206 -0.999544 0.026088 159 4 237 1
-0.064158 -0.027478 0.205813 0.000000 0.999054 -0.043496 159 4 237 1
-0.160360 -0.017495 0.435123 0.000000 -0.999054 0.043496 159 4 237 1
0.158764 -0.619634 0.150146 0.309017 0.000000 -0.951057 37 150 178 1
0.081119 0.292327 -0.363724 -0.103852 0.199269 0.974426 137 107 175 1
-0.191828 -0.599507 -0.092454 0.809017 0.000000 -0.587785 37 150 178 1
0.007389 0.328686 -0.352571 0.000000 -0.208882 -0.977941 137 107 175 1
-0.432974 0.377693 0.156755 0.000000 -1.000000 -0.000000 175 213 5 1
-0.384250 0.380504 -0.320499 0.939693 0.000000 -0.342020 223 228 22 1
-0.170224 0.162134 -0.326509 -0.207718 -0.128184 -0.969754 137 107 175 1
0.311663 -0.143523 -0.268202 -0.939693 0.000000 -0.342020 223 228 22 1
-0.002177 -0.394157 0.175981 0.093466 0.000000 -0.995622 26 106 177 1
0.084068 -0.040464 -0.092448 0.000000 -0.999054 0.043496 159 4 237 1
-0.371985 0.005174 0.143394 0.989184 -0.140892 0.040804 159 4 237 1
-0.441022 0.398801 -0.203211 0.894082 0.323653 0.309622 175 213 5 1
-0.146008 0.001838 0.512244 -0.120114 -0.027747 -0.992372 159 4 237 1
-0.127745 0.041695 0.283772 0.008695 -0.999329 0.035569 159 4 237 1
-0.337128 -0.014137 0.486047 0.000000 -1.000000 -0.000000 157 83 134 1
0.168988 -0.042920 -0.148859 0.000000 -0.999054 0.043496 159 4 237 1
-0.349707 0.036641 0.181630 0.079076 -0.995856 0.044925 159 4 237 1
-0.214183 -0.581563 -0.123223 0.809017 0.000000 -0.587785 37 150 178 1
0.022518 -0.567435 0.053695 0.809017 -0.000000 0.587785 37 150 178 1
-0.278926 -0.044531 0.451946 0.000000 0.000000 -1.000000 157 83 134 1
-0.384082 0.599988 -0.320039 0.939693 0.000000 -0.342020 223 228 22 1
0.176372 0.041456 0.278276 -0.010008 -0.999304 0.035932 159 4 237 1
-0.301161 -0.040290 -0.088449 0.000000 0.999054 -0.043496 157 83 134 1
-0.467553 0.407730 -0.066513 -0.938955 -0.339897 -0.053231 175 213 5 1
0.141448 -0.023543 0.296197 0.000000 -0.999054 0.043496 159 4 237 1
0.264582 0.585052 -0.396346 -0.304839 0.245035 0.920343 137 107 175 1
0.139526 -0.042556 -0.140513 0.000000 -0.999054 0.043496 159 4 237 1
0.060995 -0.076105 0.451946 0.000000 -0.000000 1.000000 157 83 134 1
0.329730 -0.020388 0.368677 0.000000 -0.999054 0.043496 157 83 134 1
-0.325693 -0.169099 -0.270902 0.000000 -0.998840 0.048147 223 228 22 1
0.094997 0.022078 -0.166819 0.006298 0.997842 -0.065352 159 4 237 1
0.125849 0.038186 0.203172 0.006841 0.999140 -0.040900 159 4 237 1
0.194609 -0.564731 0.219430 -0.309017 -0.000000 0.951057 37 150 178 1
0.008494 -0.019307 0.393498 0.000000 -0.999054 0.043496 159 4 237 1
0.368477 0.068886 0.203642 -0.999066 0.043219 0.000000 191 252 191 1
0.165757 -0.018940 -0.224026 0.250729 0.047161 -0.966908 159 4 237 1
-0.463814 -0.689468 0.308404 -0.309017 0.000000 -0.951057 173 54 68 1
-0.175601 -0.016596 0.455764 0.000000 -0.999054 0.043496 157 83 134 1
-0.311885 0.340595 -0.281950 -0.939693 -0.000000 0.342020 223 228 22 1
0.029723 -0.547778 0.322286 -1.000000 0.000000 0.000000 37 150 178 1
-0.414332 0.415661 -0.167226 -0.917926 -0.332285 -0.216791 175 213 5 1
-0.323957 -0.080023 0.277324 -0.998843 0.000000 -0.048082 157 83 134 1
-0.025093 -0.708316 0.552971 1.000000 0.000000 0.000000 173 54 68 1
0.309060 -0.040324 -0.089250 0.000000 0.999054 -0.043496 159 4 237 1
-0.294631 0.727265 -0.399828 -0.951057 0.026933 0.307841 137 107 175 1
0.044903 0.013571 0.512244 -0.253269 -0.054064 -0.965884 159 4 237 1
0.492532 0.427855 0.210512 -0.939337 0.340035 0.044962 175 213 5 1
-0.148703 -0.556443 0.206018 0.309017 -0.000000 0.951057 37 150 178 1
0.081659 0.047192 0.410029 -0.004587 -0.999619 0.027219 159 4 237 1
-0.323342 0.304363 -0.313429 0.939693 0.000000 -0.342020 223 228 22 1
-0.187623 0.634738 -0.428727 0.204935 0.252006 0.945777 137 107 175 1
0.093089 0.381810 -0.381880 0.103558 -0.221293 -0.969693 137 107 175 1
0.314003 0.043979 0.336220 0.019265 0.999299 -0.032095 159 4 237 1
-0.090526 0.578567 -0.407064 0.103131 0.247868 0.963289 137 107 175 1
-0.316417 0.173049 -0.294403 0.939693 0.000000 -0.342020 223 228 22 1
0.396917 0.572105 -0.380800 -0.334625 0.206817 0.919376 223 228 22 1
-0.232172 -0.544669 0.230103 -0.014234 0.999888 0.004625 37 150 178 1
0.433784 0.238384 0.162273 0.976007 -0.217740 -0.000000 191 252 191 1
0.187226 -0.066764 0.501280 0.000000 0.000000 -1.000000 157 83 134 1
0.068370 0.248086 -0.353180 0.994522 0.009110 0.104131 137 107 175 1
0.050391 -0.596778 0.130904 -0.998341 0.000000 -0.057585 26 106 177 1
0.283631 -0.544669 -0.235338 -0.017104 -0.999577 0.023542 37 150 178 1
0.483139 0.430274 -0.007229 -0.939042 0.339929 0.051462 175 213 5 1
-0.350837 -0.057612 -0.190351 0.998843 -0.000000 0.048096 157 83 134 1
-0.090439 0.362273 -0.377263 0.103617 0.217238 0.970604 137 107 175 1
0.151307 -0.031491 0.113641 0.000000 -0.999054 0.043496 159 4 237 1
0.401609 -0.681710 0.261960 -0.873796 0.394808 -0.283913 173 54 68 1
0.484152 0.424661 0.057333 -0.939134 0.339962 0.049535 175 213 5 1
0.393356 0.427633 -0.247725 0.838327 -0.303470 -0.452895 175 213 5 1
0.430650 0.401157 0.022915 -0.939008 0.339916 0.052158 175 213 5 1
0.385382 -0.035702 0.430926 -0.998843 -0.000000 0.048096 157 83 134 1
0.334026 -0.068723 0.390316 -0.998843 -0.000000 0.048082 157 83 134 1
-0.105383 0.302684 -0.362762 0.103814 0.202406 0.973784 137 107 175 1
-0.419751 0.275781 0.232680 0.000000 0.000000 -1.000000 191 252 191 1
0.376038 0.824631 -0.414073 0.053290 0.987787 -0.146413 223 228 22 1
0.049465 -0.483084 0.118317 0.979016 0.000000 -0.203783 26 106 177 1
0.027789 -0.234832 0.166817 0.000000 -1.000000 -0.000000 26 106 177 1
-0.374544 0.669417 -0.410824 0.332295 0.236769 0.912973 223 228 22 1
-0.222092 0.038008 0.199069 0.014785 -0.999043 0.041168 159 4 237 1
0.071586 -0.544669 0.039819 -0.003024 -0.999987 0.004162 37 150 178 1
0.183147 0.011885 0.512244 0.541241 0.043219 0.839756 159 4 237 1
0.337308 -0.035271 0.026824 0.000000 -0.999054 0.043496 159 4 237 1
-0.326935 -0.545850 0.206292 0.309017 -0.000000 0.951057 37 150 178 1
0.343433 0.027429 -0.020917 0.102376 0.988395 -0.112223 159 4 237 1
-0.044811 0.797388 -0.505662 0.018575 -0.796520 0.604327 10 43 224 1
-0.311144 -0.026647 0.224903 0.000000 0.999054 -0.043496 159 4 237 1
0.210979 -0.558141 -0.205701 0.809017 -0.000000 0.587785 37 150 178 1
-0.417762 0.388404 -0.048885 -0.938931 -0.339888 -0.053703 175 213 5 1
-0.354494 -0.116466 -0.076325 -0.002313 -0.999023 0.044133 157 83 134 1
-0.298122 0.026679 -0.061141 -0.020419 0.998087 -0.058361 159 4 237 1
0.276000 -0.090880 0.500654 0.000000 -1.000000 -0.000000 157 83 134 1
0.021549 -0.374936 0.172148 0.400413 -0.000000 0.916335 26 106 177 1
0.204722 0.037081 0.177775 0.012399 0.999016 -0.042577 159 4 237 1
-0.276833 0.037278 0.182301 -0.018195 0.998940 -0.042274 159 4 237 1
-0.171060 -0.029393 0.161846 0.000000 0.999054 -0.043496 159 4 237 1
-0.239638 -0.724448 -0.251518 -0.809017 -0.000000 0.587785 173 54 68 1
-0.273494 0.043618 0.327927 -0.017436 0.999315 -0.032645 159 4 237 1
-0.262788 0.452184 -0.337441 0.305669 0.228244 0.924376 137 107 175 1
-0.428400 0.447666 -0.155927 -0.923105 -0.334159 -0.190301 175 213 5 1
0.358886 0.663344 -0.326767 -0.325602 0.306104 0.894586 223 228 22 1
-0.240073 -0.595221 0.235706 0.309017 -0.000000 0.951057 37 150 178 1
0.122502 0.788440 -0.497188 -0.128536 0.256672 0.957913 10 43 224 1
-0.381674 0.235959 -0.313422 -0.939693 -0.000000 0.342020 223 228 22 1
0.398621 0.014617 0.494372 0.778330 0.045090 0.626234 159 4 237 1
-0.117008 -0.651688 -0.042166 0.000000 1.000000 0.000000 37 150 178 1
-0.421168 -0.651688 0.276409 0.000000 1.000000 0.000000 37 150 178 1
0.069522 -0.591998 -0.011001 -0.809017 0.000000 -0.587785 37 150 178 1
-0.260964 0.045292 0.366382 -0.016523 0.999410 -0.030102 159 4 237 1
0.046511 -0.396003 0.146934 0.920178 -0.000000 0.391501 26 106 177 1
0.192797 0.042410 0.300188 -0.011049 -0.999344 0.034482 159 4 237 1
0.314008 -0.091194 -0.025526 0.998843 0.000000 -0.048082 157 83 134 1
-0.025093 -0.589236 0.223470 -1.000000 0.000000 0.000000 37 150 178 1
-0.273664 0.656946 -0.411221 0.304500 0.251384 0.918742 137 107 175 1
0.387491 -0.067201 0.474722 -0.998843 -0.000000 0.048096 157 83 134 1
0.047560 0.035902 0.150713 -0.001657 -0.999014 0.044370 159 4 237 1
-0.028156 -0.035487 0.021873 0.000000 -0.999054 0.043496 159 4 237 1
0.536286 -0.649729 0.272810 -0.309017 -0.000000 0.951057 37 150 178 1
-0.058045 -0.037183 -0.017084 0.000000 0.999054 -0.043496 159 4 237 1
-0.026000 0.059973 -0.304944 0.031561 0.104477 0.994026 10 43 224 1
0.079930 -0.640285 0.067932 0.809017 -0.000000 0.587785 37 150 178 1
-0.033310 -0.036942 -0.011548 0.000000 0.999054 -0.043496 159 4 237 1
0.319528 0.039211 0.226703 -0.020118 -0.999023 0.039337 159 4 237 1
0.029723 -0.625742 0.237019 1.000000 0.000000 0.000000 37 150 178 1
-0.273123 0.150470 -0.282915 0.951057 -0.026933 -0.307841 10 43 224 1
-0.002540 0.036325 0.160414 -0.001509 0.999042 -0.043729 159 4 237 1
0.469003 -0.716459 0.250948 -0.309017 -0.000000 0.951057 173 54 68 1
-0.357117 -0.072993 -0.326553 -0.341937 0.022035 -0.939465 223 228 22 1
-0.382247 0.594422 -0.389636 0.334113 0.213774 0.917970 223 228 22 1
0.042348 -0.035041 0.032116 0.000000 0.999054 -0.043496 159 4 237 1
0.219891 0.049676 -0.277415 0.242510 -0.101409 -0.964834 10 43 224 1
0.110766 -0.025072 0.261078 0.000000 0.999054 -0.043496 159 4 237 1
-0.159823 0.483343 -0.395650 -0.205485 -0.236035 -0.949770 137 107 175 1
0.343113 -0.024036 0.284880 0.000000 -0.999054 0.043496 159 4 237 1
0.015409 -0.041475 -0.115678 0.000000 -0.999054 0.043496 159 4 237 1
-0.466811 -0.659019 0.275347 -0.495060 0.853840 0.160855 37 150 178 1
0.206395 0.100209 -0.285991 -0.227472 0.101788 0.968450 10 43 224 1
-0.196260 0.028262 -0.024787 -0.014056 0.998334 -0.055966 159 4 237 1
0.029723 -0.735710 0.590161 1.000000 0.000000 0.000000 173 54 68 1
0.357897 0.069370 -0.234957 -0.939693 0.000000 -0.342020 223 228 22 1
-0.030947 0.022510 -0.156898 -0.002445 0.997902 -0.064698 159 4 237 1
0.501946 -0.586350 0.319290 0.309017 0.000000 -0.951057 37 150 178 1
-0.126631 -0.034616 0.041875 0.000000 0.999054 -0.043496 159 4 237 1
-0.056929 -0.035101 0.030718 0.000000 0.999054 -0.043496 159 4 237 1
0.044440 -0.604070 0.023521 0.809017 -0.000000 0.587785 37 150 178 1
0.101925 0.131192 -0.349942 -0.106046 0.103940 0.988914 10 43 224 1
-0.067272 0.035389 0.138915 0.005549 -0.998965 0.045150 159 4 237 1
0.013160 -0.027029 0.216140 0.000000 0.999054 -0.043496 159 4 237 1
0.055253 -0.637109 0.174150 0.309017 0.000000 -0.951057 37 150 178 1
0.203664 -0.599150 -0.102373 0.809017 -0.000000 0.587785 37 150 178 1
-0.488900 0.448954 0.205252 0.000000 1.000000 0.000000 175 213 5 1
-0.243922 -0.032367 0.501280 0.000000 -0.000000 1.000000 157 83 134 1
-0.437381 -0.567903 0.242178 0.309017 -0.000000 0.951057 37 150 178 1
-0.349267 0.729465 -0.360398 -0.931987 0.093820 0.350141 10 43 224 1
0.352358 -0.036587 0.466585 0.689824 0.000000 -0.723977 157 83 134 1
0.357263 -0.050245 -0.153040 -0.998843 -0.000000 0.048096 157 83 134 1
-0.106472 -0.650265 0.192297 -0.309017 0.000000 -0.951057 37 150 178 1
-0.304608 0.076685 -0.236617 0.341874 0.029190 0.939292 223 228 22 1
0.069810 0.044742 0.353755 0.003649 0.999515 -0.030941 159 4 237 1
-0.040590 0.036145 0.508757 0.018202 -0.724149 -0.689403 159 4 237 1
0.017972 -0.036857 -0.009594 0.000000 0.999054 -0.043496 159 4 237 1
0.260481 0.061800 -0.311899 0.274763 -0.100506 -0.956245 10 43 224 1
0.029723 -0.694859 0.619482 1.000000 0.000000 0.000000 173 54 68 1
-0.304682 0.281730 -0.262160 0.939693 0.000000 -0.342020 223 228 22 1
0.296600 0.551229 -0.376207 0.951057 0.026933 0.307841 137 107 175 1
-0.079686 -0.626975 0.061897 0.809017 0.000000 -0.587785 37 150 178 1
-0.139273 0.136311 -0.343808 0.000000 -0.994522 0.104529 10 43 224 1
0.370635 0.187642 -0.269953 -0.939693 0.000000 -0.342020 223 228 22 1
-0.407601 0.091303 0.205628 -0.997459 -0.071247 -0.000000 191 252 191 1
0.133335 -0.026967 0.451946 0.000000 0.000000 -1.000000 159 4 237 1
0.436994 0.377693 -0.127172 0.000000 -1.000000 -0.000000 175 213 5 1
-0.048208 -0.014137 0.493270 0.000000 1.000000 0.000000 157 83 134 1
-0.331828 -0.043648 0.440816 -0.998843 0.000000 -0.048082 157 83 134 1
0.133802 -0.026794 0.221535 0.000000 0.999054 -0.043496 159 4 237 1
-0.130279 0.119870 -0.301968 -0.147764 -0.103381 -0.983605 10 43 224 1
0.304297 -0.094932 -0.227276 -0.998843 -0.000000 0.048082 157 83 134 1
-0.426832 0.227484 0.201974 0.978357 0.206925 0.000000 191 252 191 1
-0.475290 0.422698 -0.017351 0.939028 0.339923 0.051764 175 213 5 1
-0.254218 0.422608 -0.356756 -0.305848 -0.224347 -0.925271 137 107 175 1
0.382519 0.057322 0.161419 0.000000 -0.000000 1.000000 191 252 191 1
-0.275000 -0.090880 0.465680 0.000000 -1.000000 -0.000000 157 83 134 1
-0.379920 0.229791 0.230712 0.984956 0.172805 0.000000 191 252 191 1
-0.122991 -0.038456 -0.046329 0.000000 0.999054 -0.043496 159 4 237 1
-0.088885 0.258435 -0.355664 -0.103986 -0.187572 -0.976731 137 107 175 1
0.377031 -0.169184 -0.287527 0.939693 -0.000000 0.342020 223 228 22 1
-0.179655 0.731894 -0.471756 -0.193036 -0.253951 -0.947758 10 43 224 1
-0.091117 0.196180 -0.344385 -0.104268 -0.156775 -0.982115 137 107 175 1
0.172166 0.610801 -0.426721 0.205009 -0.249951 -0.946306 137 107 175 1
0.043145 -0.027620 0.202555 0.000000 -0.999054 0.043496 159 4 237 1
-0.277692 -0.700412 -0.210636 0.809017 0.000000 -0.587785 173 54 68 1
0.257904 0.297829 -0.305050 0.307041 -0.194848 -0.931537 137 107 175 1
-0.430859 0.377693 -0.166505 0.000000 1.000000 0.000000 175 213 5 1
0.372023 0.138063 -0.273769 -0.939693 0.000000 -0.342020 223 228 22 1
0.017740 -0.200797 0.143595 0.706209 -0.000000 0.708004 26 106 177 1
0.037234 -0.446491 0.094745 0.722801 0.000000 -0.691056 26 106 177 1
0.265008 -0.615574 0.184666 0.309017 0.000000 -0.951057 37 150 178 1
-0.378014 0.168012 -0.303365 -0.939693 -0.000000 0.342020 223 228 22 1
0.219754 0.023869 -0.125682 -0.014738 -0.997928 0.062630 159 4 237 1
-0.375652 -0.037574 0.324989 -0.998843 0.000000 -0.048096 157 83 134 1
0.193173 0.593761 -0.417688 -0.205067 0.248327 0.946721 137 107 175 1
0.050656 -0.412475 0.127371 -0.999876 -0.000000 0.015715 26 106 177 1
-0.104810 0.178450 -0.318195 -0.994522 0.009110 0.104131 137 107 175 1
-0.231900 0.032876 0.081205 0.015833 -0.998675 0.048960 159 4 237 1
0.385127 0.033763 -0.309770 -0.939693 0.000000 -0.342020 223 228 22 1
-0.458305 0.405039 -0.146444 0.925632 0.335074 0.175871 175 213 5 1
-0.031189 -0.311105 0.162960 -0.693260 -0.000000 0.720687 26 106 177 1
0.379468 -0.077064 0.308099 -0.998843 -0.000000 0.048096 157 83 134 1
-0.227666 0.043593 0.327352 0.014637 -0.999359 0.032684 159 4 237 1
0.056960 -0.651688 0.084555 0.000000 1.000000 0.000000 37 150 178 1
-0.103093 0.028086 -0.028816 -0.007980 0.998386 -0.056236 159 4 237 1
-0.380108 -0.020154 0.271245 -0.987429 0.006400 -0.157936 159 4 237 1
0.029723 -0.626601 0.191762 -1.000000 0.000000 0.000000 37 150 178 1
0.262191 -0.043262 -0.156719 0.000000 0.999054 -0.043496 159 4 237 1
-0.352160 -0.009433 -0.175969 0.729376 -0.087047 0.678553 159 4 237 1
0.435517 0.262991 0.161419 0.000000 -0.000000 1.000000 191 252 191 1
-0.268714 -0.025391 0.253754 0.000000 -0.999054 0.043496 159 4 237 1
0.377684 0.404519 -0.289321 0.939693 -0.000000 0.342020 223 228 22 1
-0.252584 -0.034917 0.034953 0.000000 0.999054 -0.043496 159 4 237 1
0.390264 0.676228 -0.408637 0.332125 -0.238794 -0.912508 223 228 22 1
-0.067378 0.614464 -0.419973 0.994522 -0.009110 -0.104131 137 107 175 1
-0.460764 -0.734663 0.249775 0.309017 -0.000000 0.951057 173 54 68 1
0.161346 0.525698 -0.383866 -0.205332 0.240648 0.948645 137 107 175 1
-0.253889 -0.651688 -0.200487 0.000000 -1.000000 -0.000000 37 150 178 1
-0.379163 0.038670 0.395503 0.416783 -0.877683 -0.236567 159 4 237 1
0.066234 0.137785 -0.329780 0.000000 -0.994522 0.104529 10 43 224 1
-0.194150 0.008118 -0.218519 0.295546 -0.740653 0.603395 159 4 237 1
0.029723 -0.644463 0.421772 -1.000000 0.000000 0.000000 37 150 178 1
-0.315681 -0.066350 0.105390 0.998843 -0.000000 0.048082 157 83 134 1
-0.354941 -0.116999 -0.105121 0.998843 -0.000000 0.048096 157 83 134 1
-0.170345 0.046608 0.396602 -0.010870 0.999546 -0.028105 159 4 237 1
0.371415 0.432845 -0.272098 0.939693 -0.000000 0.342020 175 213 5 1
0.283593 -0.015049 0.491291 0.000000 0.999054 -0.043496 159 4 237 1
-0.278031 0.684617 -0.417393 0.304435 0.252570 0.918438 137 107 175 1
-0.427079 -0.727290 0.296468 -0.309017 0.000000 -0.951057 173 54 68 1
0.112025 -0.015712 0.476066 0.000000 -0.999054 0.043496 157 83 134 1
-0.335259 0.164809 -0.340466 0.341228 0.068001 0.937518 223 228 22 1
-0.044890 -0.298854 0.118734 -0.980755 0.000000 -0.195242 26 106 177 1
0.072214 -0.651688 0.032096 -0.000000 -1.000000 -0.000000 37 150 178 1
0.327460 0.025066 -0.098200 -0.022058 -0.997906 0.060807 159 4 237 1
-0.307099 -0.708651 -0.251111 0.809017 0.000000 -0.587785 173 54 68 1
-0.460407 0.448954 0.065869 0.000000 1.000000 0.000000 175 213 5 1
0.018103 -0.595080 0.093134 -0.587785 -0.000000 0.809017 37 150 178 1
0.037098 -0.085258 0.451946 0.000000 0.000000 -1.000000 157 83 134 1
-0.489647 0.448954 0.105193 0.000000 -1.000000 -0.000000 175 213 5 1
-0.191322 -0.544669 0.196639 -0.011006 0.999933 0.003576 37 150 178 1
-0.081044 -0.033139 0.075786 0.000000 -0.999054 0.043496 159 4 237 1
-0.351029 -0.090439 -0.186356 0.998843 -0.000000 0.048096 157 83 134 1
0.386777 0.377693 -0.239693 0.000000 -1.000000 -0.000000 175 213 5 1
-0.139059 -0.032651 0.087007 0.000000 -0.999054 0.043496 159 4 237 1
0.427549 -0.564676 0.237479 0.309017 0.000000 -0.951057 37 150 178 1
-0.187840 0.428953 -0.376313 -0.205741 -0.227957 -0.951686 137 107 175 1
-0.304758 -0.092314 -0.121525 -0.998843 0.000000 -0.048082 157 83 134 1
-0.099353 -0.596717 0.034827 -0.809017 -0.000000 0.587785 37 150 178 1
-0.159978 0.035088 0.132008 -0.011243 0.998896 -0.045604 159 4 237 1
-0.359729 -0.081517 -0.005687 -0.998843 0.000000 -0.048096 157 83 134 1
0.004530 -0.636923 0.165723 0.000000 -0.000000 1.000000 37 150 178 1
-0.484845 -0.573199 0.257600 -0.309017 0.000000 -0.951057 37 150 178 1
-0.026022 -0.563799 0.102252 0.587785 -0.000000 0.809017 26 106 177 1
-0.126696 -0.651688 -0.093575 0.000000 -1.000000 -0.000000 37 150 178 1
0.179368 0.556704 -0.411030 -0.205195 0.244652 0.947650 137 107 175 1
0.073755 -0.599663 0.076431 0.809017 -0.000000 0.587785 37 150 178 1
-0.359625 -0.030663 0.501280 0.000000 -0.000000 1.000000 157 83 134 1
-0.331398 -0.104188 0.201849 0.000000 -0.999014 0.044399 157 83 134 1
-0.262450 0.575495 -0.369177 -0.304919 -0.243487 -0.920727 137 107 175 1
-0.151662 -0.544669 -0.061446 0.008365 -0.999899 0.011514 37 150 178 1
0.284970 -0.544669 0.196917 0.016567 0.999848 0.005383 37 150 178 1
0.332934 0.032823 -0.227106 -0.342008 0.008247 0.939661 223 228 22 1
0.261874 -0.544669 -0.223863 -0.016209 -0.999620 0.022310 37 150 178 1
0.397708 -0.100921 0.179735 0.000000 -1.000000 -0.000000 191 252 191 1
-0.215562 -0.023730 0.291905 0.000000 -0.999054 0.043496 159 4 237 1
-0.025093 -0.715691 0.621046 1.000000 0.000000 0.000000 173 54 68 1
0.029692 0.046903 0.403396 -0.001385 -0.999617 0.027658 159 4 237 1
-0.338796 -0.564614 0.267783 0.309017 -0.000000 0.951057 37 150 178 1
0.149666 0.021708 -0.175326 -0.010110 -0.997774 0.065911 159 4 237 1
0.215359 -0.084262 0.451946 0.000000 -0.000000 1.000000 157 83 134 1
0.067224 0.212090 -0.327657 -0.104207 0.164535 0.980851 137 107 175 1
0.351879 -0.571499 0.270530 0.309017 0.000000 -0.951057 37 150 178 1
-0.383266 -0.054705 0.232680 0.000000 -0.000000 1.000000 191 252 191 1
-0.191370 -0.018639 0.408852 0.000000 0.999054 -0.043496 159 4 237 1
0.403032 -0.544669 0.267310 0.025360 0.999644 0.008240 37 150 178 1
0.396196 0.011932 0.161419 0.000000 0.000000 -1.000000 191 252 191 1
-0.045334 -0.599126 0.134155 -0.992101 -0.000000 0.125441 37 150 178 1
-0.235798 -0.658337 -0.246232 0.809017 0.000000 -0.587785 37 150 178 1
-0.299810 -0.070326 -0.224303 -0.998843 0.000000 -0.048082 157 83 134 1
-0.382599 -0.038998 0.469274 -0.998843 0.000000 -0.048096 157 83 134 1
-0.342331 0.040275 0.251151 0.021935 -0.999048 0.037719 159 4 237 1
0.232660 -0.021928 0.333292 0.000000 -0.999054 0.043496 159 4 237 1
-0.118489 -0.041282 -0.111246 0.000000 0.999054 -0.043496 159 4 237 1
0.003164 0.503223 -0.393147 0.000000 0.239953 0.970784 137 107 175 1
-0.334446 0.025521 -0.071261 -0.085469 0.990715 -0.105729 159 4 237 1
-0.210533 -0.041308 0.451946 0.000000 -0.000000 1.000000 157 83 134 1
0.326487 -0.035888 0.501280 0.000000 0.000000 -1.000000 157 83 134 1
0.099513 0.184848 -0.342211 0.104322 -0.149149 -0.983296 137 107 175 1
0.312312 -0.588982 -0.311032 0.549134 0.356640 -0.755818 37 150 178 1
-0.351714 -0.098901 0.320811 -0.000000 0.999014 -0.044399 157 83 134 1
0.404974 0.448954 -0.242606 0.000000 -1.000000 -0.000000 175 213 5 1
-0.095222 0.555382 -0.400622 -0.103173 -0.245479 -0.963896 137 107 175 1
-0.149659 0.769979 -0.487247 -0.161162 -0.255436 -0.953299 10 43 224 1
-0.002141 0.248968 -0.358856 0.000000 0.184492 0.982834 137 107 175 1
0.049178 -0.017633 0.431944 0.000000 -0.999054 0.043496 159 4 237 1
0.252234 -0.033678 0.063417 0.000000 -0.999054 0.043496 159 4 237 1
-0.232037 0.709480 -0.410740 0.000000 0.965926 -0.258819 10 43 224 1
-0.087932 0.139670 -0.311847 0.000000 0.994522 -0.104529 10 43 224 1
-0.346431 0.416222 -0.325872 -0.890851 -0.322483 0.319983 175 213 5 1
0.309623 -0.069733 -0.116629 0.998843 0.000000 -0.048082 157 83 134 1
-0.112068 -0.077246 0.501280 0.000000 0.000000 -1.000000 157 83 134 1
0.315659 0.019320 -0.279182 -0.939693 0.000000 -0.342020 223 228 22 1
-0.473505 -0.723707 0.311553 0.309017 -0.000000 0.951057 173 54 68 1
0.186199 0.413701 -0.374015 0.205816 -0.225498 -0.952256 137 107 175 1
0.370039 0.099126 0.186129 -0.998153 0.060747 0.000000 191 252 191 1
-0.055328 0.037301 0.182832 -0.004652 0.999096 -0.042246 159 4 237 1
-0.266206 0.504889 -0.349571 0.305323 0.235471 0.922676 137 107 175 1
-0.176997 0.246373 -0.338870 0.206947 0.180742 0.961512 137 107 175 1
0.153601 0.116115 -0.298374 -0.168630 0.103032 0.980280 10 43 224 1
-0.348962 0.205109 -0.228478 0.340605 0.090877 0.935804 223 228 22 1
-0.151402 0.787701 -0.438226 -0.167031 -0.487301 -0.857111 10 43 224 1
0.336416 -0.086238 0.439971 -0.998843 -0.000000 0.048082 157 83 134 1
-0.117355 0.050002 0.474564 -0.007333 0.999710 -0.022950 159 4 237 1
-0.028682 -0.292682 0.091378 0.644708 -0.000000 0.764429 26 106 177 1
-0.112738 0.034708 0.123276 0.008388 -0.998898 0.046183 159 4 237 1
-0.179068 -0.022288 0.325037 0.000000 -0.999054 0.043496 159 4 237 1
-0.332948 0.035763 0.147503 0.021756 -0.998769 0.044572 159 4 237 1
-0.181668 0.009785 0.512244 -0.177690 0.045219 0.983047 159 4 237 1
-0.470155 0.448954 0.017479 0.000000 1.000000 0.000000 175 213 5 1
0.382264 -0.149007 -0.301903 0.939693 -0.000000 0.342020 223 228 22 1
0.173710 0.298802 -0.350993 -0.206526 0.199515 0.957883 137 107 175 1
-0.302164 -0.041806 -0.123275 0.000000 0.999054 -0.043496 159 4 237 1
-0.325970 -0.544669 0.258404 0.020661 -0.999764 -0.006713 37 150 178 1
-0.248897 0.539165 -0.384531 -0.951057 0.026933 0.307841 137 107 175 1
-0.097865 0.694544 -0.436797 0.102973 0.256605 0.961015 10 43 224 1
-0.224327 -0.702082 -0.230445 0.809017 0.000000 -0.587785 173 54 68 1
0.354327 -0.027112 0.501280 0.000000 -0.000000 1.000000 157 83 134 1
-0.373602 0.187940 0.186027 0.991738 0.128284 0.000000 191 252 191 1
0.048101 0.701556 -0.480536 -0.049370 0.258504 0.964748 10 43 224 1
0.376689 0.036057 0.307006 -0.373632 -0.923469 -0.087203 159 4 237 1
-0.377602 -0.074467 0.365489 0.998843 -0.000000 0.048096 157 83 134 1
0.009894 -0.572592 0.656828 0.000000 -0.592659 -0.805453 37 150 178 1
0.215443 -0.544669 0.173967 0.011763 0.999924 0.003822 37 150 178 1
0.013276 -0.365466 0.081132 -0.227130 -0.000000 0.973864 26 106 177 1
0.395663 0.645276 -0.338718 0.939693 -0.000000 0.342020 223 228 22 1
0.390026 0.258221 0.215640 0.977682 -0.210089 -0.000000 191 252 191 1
-0.007581 0.058381 -0.347805 0.010532 0.104523 0.994467 10 43 224 1
-0.324666 -0.158359 -0.317065 -0.939693 -0.000000 0.342020 223 228 22 1
-0.238025 0.773862 -0.469011 -0.255180 -0.250251 -0.933947 10 43 224 1
-0.056090 0.740733 -0.431658 -0.065046 -0.376005 -0.924332 10 43 224 1
0.362636 0.138628 -0.247978 0.939693 -0.000000 0.342020 223 228 22 1
0.237396 0.276243 -0.307365 -0.307280 0.187885 0.932887 137 107 175 1
0.111922 0.024232 -0.117336 -0.007255 -0.998045 0.062084 159 4 237 1
0.331838 -0.058139 0.344854 -0.998843 -0.000000 0.048082 157 83 134 1
-0.091603 0.391823 -0.361225 -0.103544 -0.222260 -0.969474 137 107 175 1
-0.180326 -0.613970 -0.076622 0.809017 0.000000 -0.587785 37 150 178 1
0.027019 -0.555609 0.165723 0.000000 0.000000 -1.000000 37 150 178 1
0.082477 0.788273 -0.448812 -0.087839 0.497714 0.862882 10 43 224 1
-0.044639 -0.236702 0.139431 0.972239 0.000000 -0.233989 26 106 177 1
-0.018314 -0.234832 0.116653 0.000000 -1.000000 -0.000000 26 106 177 1
-0.413474 -0.672944 0.234410 0.309017 -0.000000 0.951057 173 54 68 1
0.290848 0.686443 -0.415182 -0.304432 0.252633 0.918421 137 107 175 1
0.223353 -0.016990 0.446710 0.000000 0.999054 -0.043496 157 83 134 1
0.137358 0.039813 0.240529 -0.007475 -0.999233 0.038429 159 4 237 1
0.371816 0.251533 -0.336522 0.340329 -0.099327 -0.935046 223 228 22 1
0.089055 0.478267 -0.382508 0.103329 -0.236199 -0.966195 137 107 175 1
0.237255 0.708233 -0.415394 0.000000 0.965926 -0.258819 10 43 224 1
0.274829 0.195001 -0.280259 -0.308356 0.147811 0.939717 137 107 175 1
-0.388334 0.490142 -0.331719 -0.939693 -0.000000 0.342020 223 228 22 1
0.450009 0.301377 0.184011 0.960104 -0.279642 -0.000000 191 252 191 1
-0.062075 -0.069649 0.451946 0.000000 -0.000000 1.000000 157 83 134 1
-0.428848 0.421790 -0.068592 0.938910 0.339881 0.054127 175 213 5 1
0.419354 0.289205 0.232680 0.000000 -0.000000 1.000000 191 252 191 1
-0.386050 0.785656 -0.361381 -0.308612 -0.431066 -0.847904 223 228 22 1
-0.160094 -0.599814 0.152082 0.309017 -0.000000 0.951057 37 150 178 1
0.006478 -0.042821 -0.146586 0.000000 -0.999054 0.043496 159 4 237 1
0.467548 -0.570777 0.308113 0.309017 0.000000 -0.951057 37 150 178 1
-0.303569 -0.115028 -0.146220 0.998843 -0.000000 0.048082 157 83 134 1
0.364558 0.799976 -0.376811 0.302323 -0.467613 -0.830626 223 228 22 1
-0.121014 0.036120 -0.320886 0.000000 0.994522 -0.104529 10 43 224 1
-0.325819 0.019334 -0.201908 -0.113483 0.979978 -0.163597 159 4 237 1
0.381886 0.039580 0.389294 -0.370662 -0.910094 -0.185304 159 4 237 1
0.352962 -0.101476 0.262862 -0.000000 -0.999014 0.044399 157 83 134 1
0.385596 -0.065747 0.435365 -0.998843 -0.000000 0.048096 157 83 134 1
0.315837 -0.039150 0.012455 -0.998843 -0.000000 0.048082 159 4 237 1
0.223678 0.093864 -0.324731 -0.235669 0.101585 0.966509 10 43 224 1
0.394835 0.550057 -0.336444 0.939693 -0.000000 0.342020 223 228 22 1
0.420134 0.164356 0.181267 0.989582 -0.143973 -0.000000 191 252 191 1
0.059889 0.085558 -0.306641 0.064145 -0.104314 -0.992474 10 43 224 1
0.040120 -0.019841 -0.224026 0.079139 -0.046473 0.995780 159 4 237 1
0.047334 0.115663 -0.352634 -0.047924 0.104409 0.993379 10 43 224 1
-0.113563 0.722388 -0.449377 -0.994522 0.009110 0.104131 137 107 175 1
0.119540 -0.603632 0.013413 0.809017 -0.000000 0.587785 37 150 178 1
0.224364 -0.576391 -0.224123 -0.809017 0.000000 -0.587785 37 150 178 1
-0.261533 -0.031692 0.109027 0.000000 -0.999054 0.043496 159 4 237 1
0.193627 0.035901 0.150681 -0.011749 -0.998946 0.044369 159 4 237 1
0.265691 0.158577 -0.301311 -0.308795 0.120553 0.943458 137 107 175 1
-0.168031 0.385983 -0.347461 -0.205993 -0.219508 -0.953616 137 107 175 1
-0.379075 0.505917 -0.371501 0.336070 0.185720 0.923345 223 228 22 1
0.361431 0.062540 -0.327440 -0.341866 0.029946 0.939271 223 228 22 1
-0.199264 0.810315 -0.451068 -0.120562 -0.951170 -0.284148 10 43 224 1
0.179331 0.647529 -0.411754 0.204912 -0.252631 -0.945615 137 107 175 1
-0.289474 -0.660857 -0.270555 0.336154 -0.820324 0.462677 37 150 178 1
0.119668 -0.019559 0.387720 0.000000 -0.999054 0.043496 159 4 237 1
-0.055749 0.024908 -0.101808 0.004395 -0.998124 0.061059 159 4 237 1
0.322382 0.253410 -0.297651 -0.939693 0.000000 -0.342020 223 228 22 1
0.311274 -0.092753 -0.082338 0.998843 0.000000 -0.048082 157 83 134 1
0.280721 0.026766 -0.059149 0.018664 0.998129 -0.058232 159 4 237 1
-0.415837 0.377996 -0.245510 -0.853508 -0.308965 -0.419601 175 213 5 1
-0.025093 -0.631583 0.451405 1.000000 0.000000 0.000000 37 150 178 1
-0.025093 -0.581368 0.532892 -1.000000 0.000000 0.000000 37 150 178 1
0.093777 0.072505 -0.344606 0.097373 -0.104032 -0.989796 10 43 224 1
0.018091 0.060316 -0.305405 -0.017583 0.104513 0.994368 10 43 224 1
0.414400 0.116972 0.201568 0.995312 -0.096721 -0.000000 191 252 191 1
0.200366 0.037284 -0.324423 0.210791 -0.102180 -0.972176 10 43 224 1
-0.280454 0.432269 -0.330220 0.951057 -0.026933 -0.307841 137 107 175 1
0.324690 -0.578743 -0.268951 0.809017 -0.000000 0.587785 37 150 178 1
0.373558 0.011475 -0.321672 -0.342001 0.010613 0.939640 223 228 22 1
0.131201 0.699822 -0.446784 0.000000 -0.965926 0.258819 10 43 224 1
-0.010856 0.049694 0.467502 0.000850 -0.999725 0.023417 159 4 237 1
-0.466639 0.366273 0.179775 0.941803 0.336165 0.000000 191 252 191 1
0.389312 0.008522 0.344761 -0.869622 -0.051256 -0.491050 159 4 237 1
-0.291517 0.040278 0.251214 -0.018830 0.999111 -0.037717 159 4 237 1
0.394221 -0.603355 0.226650 -0.309017 -0.000000 0.951057 37 150 178 1
-0.356282 0.823238 -0.424097 0.010439 -0.957894 0.286932 10 43 224 1
0.012689 0.022142 -0.165358 -0.000606 -0.997868 0.065257 159 4 237 1
-0.144697 0.021800 -0.173208 0.010232 -0.997782 0.065771 159 4 237 1
-0.066957 -0.031359 0.116677 0.000000 0.999054 -0.043496 159 4 237 1
-0.299399 0.694187 -0.411664 0.951057 -0.026933 -0.307841 137 107 175 1
0.158644 0.757904 -0.483036 0.167063 -0.255181 -0.952351 10 43 224 1
0.484129 0.447302 -0.104302 0.936590 -0.339041 -0.088603 175 213 5 1
0.329293 -0.078598 0.291987 0.998843 0.000000 -0.048082 157 83 134 1
-0.176372 -0.035372 0.024499 0.000000 -0.999054 0.043496 159 4 237 1
0.332744 -0.122051 -0.201369 0.002313 -0.999023 0.044133 157 83 134 1
0.362787 -0.039949 -0.080635 0.000000 -0.999054 0.043496 157 83 134 1
-0.432013 0.250622 0.176221 -0.973225 -0.229856 -0.000000 191 252 191 1
0.016954 -0.322929 0.082210 0.303736 0.000000 -0.952756 26 106 177 1
-0.066433 0.087637 -0.305918 0.076607 0.104222 0.991599 10 43 224 1
0.044968 0.022105 -0.166207 -0.002839 -0.997861 0.065312 159 4 237 1
0.049536 -0.363144 0.118860 -0.981267 -0.000000 0.192654 26 106 177 1
-0.162702 0.722255 -0.434504 0.204809 0.255455 0.944879 137 107 175 1
-0.005719 -0.545832 0.165723 0.000000 -0.000000 1.000000 37 150 178 1
0.003758 0.102816 -0.310359 0.001608 -0.104529 -0.994521 10 43 224 1
0.256072 -0.041218 -0.109779 0.000000 0.999054 -0.043496 159 4 237 1
0.401522 0.461333 -0.356598 0.336975 -0.171122 -0.925832 223 228 22 1
0.152977 -0.021284 0.501280 0.000000 -0.000000 1.000000 159 4 237 1
-0.066662 -0.651688 0.148057 0.000000 1.000000 0.000000 37 150 178 1
-0.388473 0.179894 0.232680 0.000000 -0.000000 1.000000 191 252 191 1
0.368222 -0.078979 0.074555 0.998843 0.000000 -0.048096 157 83 134 1
-0.335403 -0.043275 -0.157020 0.000000 0.999054 -0.043496 159 4 237 1
-0.090691 0.035322 -0.328477 0.000000 -0.994522 0.104529 10 43 224 1
-0.094849 -0.598004 0.130883 -0.309017 0.000000 -0.951057 37 150 178 1
0.029723 -0.611447 0.506434 -1.000000 0.000000 0.000000 37 150 178 1
0.255205 0.475607 -0.371062 0.305472 -0.232407 -0.923404 137 107 175 1
0.465620 0.448954 -0.149380 0.000000 -1.000000 -0.000000 175 213 5 1
0.367205 0.032103 0.225041 0.999703 -0.024359 -0.000000 191 252 191 1
0.282542 0.045906 0.380474 0.016901 0.999432 -0.029170 159 4 237 1
0.181419 0.453679 -0.361608 -0.205643 0.231092 0.950951 137 107 175 1
0.366702 -0.021214 0.349690 0.000000 -0.999054 0.043496 159 4 237 1
0.427074 -0.735949 0.294962 0.309017 0.000000 -0.951057 173 54 68 1
-0.025093 -0.568402 0.282763 1.000000 0.000000 0.000000 37 150 178 1
-0.130197 -0.014137 0.461938 0.000000 -1.000000 -0.000000 159 4 237 1
0.085080 -0.045412 -0.206102 0.000000 0.999054 -0.043496 159 4 237 1
-0.394599 0.693441 -0.348932 0.939693 0.000000 -0.342020 223 228 22 1
-0.275339 -0.018453 0.413118 0.000000 -0.999054 0.043496 159 4 237 1
0.411840 -0.048289 0.209126 -0.997986 -0.063442 -0.000000 191 252 191 1
-0.221667 0.027344 -0.045864 0.015689 -0.998230 0.057357 159 4 237 1
-0.339039 -0.020218 -0.224026 0.565943 -0.037671 0.823584 159 4 237 1
-0.255555 0.040558 0.257638 0.016607 -0.999166 0.037294 159 4 237 1
0.383978 -0.019459 0.259040 -0.997469 -0.008863 -0.070542 159 4 237 1
-0.196680 -0.039107 -0.061276 0.000000 -0.999054 0.043496 159 4 237 1
-0.430924 0.428551 -0.251842 0.845919 0.306218 0.436637 175 213 5 1
0.212644 -0.014950 0.493571 0.000000 -0.999054 0.043496 157 83 134 1
0.071599 -0.021338 0.346845 0.000000 0.999054 -0.043496 159 4 237 1
-0.357289 0.041686 0.298995 -0.082916 0.996277 -0.023612 159 4 237 1
-0.194754 -0.625217 0.163344 -0.309017 0.000000 -0.951057 37 150 178 1
-0.219278 0.044708 -0.275922 0.246973 0.101291 0.963714 10 43 224 1
-0.182390 0.541955 -0.382450 0.205271 0.242453 0.948199 137 107 175 1
-0.002200 -0.651688 0.500672 0.000000 1.000000 0.000000 37 150 178 1
0.186201 0.734920 -0.410418 -0.208147 0.354184 0.911717 10 43 224 1
-0.103375 0.418607 -0.366173 0.103472 0.227100 0.968359 137 107 175 1
-0.050745 0.050033 0.487078 0.010481 -0.999603 -0.026164 159 4 237 1
0.006605 -0.502142 0.080254 -0.089251 -0.000000 0.996009 26 106 177 1
-0.307913 -0.651688 0.237001 0.000000 1.000000 0.000000 37 150 178 1
-0.212477 -0.544669 -0.178927 0.013669 -0.999730 0.018814 37 150 178 1
-0.268602 -0.032903 0.081205 0.000000 -0.999054 0.043496 159 4 237 1
0.443966 -0.595760 0.300451 -0.309017 -0.000000 0.951057 37 150 178 1
-0.342055 -0.646898 0.211205 -0.309017 0.000000 -0.951057 37 150 178 1
-0.253127 0.802911 -0.420512 0.261591 0.625295 0.735239 10 43 224 1
0.223421 0.779883 -0.475119 0.236026 -0.251507 -0.938635 10 43 224 1
-0.354346 0.044884 0.359600 -0.033397 0.998722 -0.037943 159 4 237 1
-0.434079 0.329975 0.232680 0.000000 0.000000 -1.000000 191 252 191 1
0.029723 -0.612751 0.660706 -1.000000 0.000000 0.000000 37 150 178 1
0.366306 -0.058676 0.034764 0.998843 0.000000 -0.048096 157 83 134 1
0.336201 -0.117361 -0.095392 0.002313 -0.999023 0.044133 157 83 134 1
0.112004 -0.028240 0.188328 0.000000 -0.999054 0.043496 159 4 237 1
0.318562 0.045481 0.370717 0.019431 0.999367 -0.029814 159 4 237 1
0.039889 -0.596879 0.158057 -0.782217 0.000000 -0.623006 37 150 178 1
0.414493 0.810427 -0.390452 0.939693 -0.000000 0.342020 223 228 22 1
0.163851 -0.017764 0.428952 0.000000 0.999054 -0.043496 159 4 237 1
0.250038 -0.017400 0.437301 0.000000 0.999054 -0.043496 159 4 237 1
0.328465 0.579377 -0.311118 0.329501 -0.268075 -0.905298 223 228 22 1
0.374458 0.026205 0.195642 -0.585772 -0.810467 -0.003824 159 4 237 1
-0.337468 0.442972 -0.352239 -0.939693 -0.000000 0.342020 223 228 22 1
-0.100441 -0.075052 0.451946 0.000000 0.000000 -1.000000 157 83 134 1
-0.327232 -0.074173 0.345344 -0.998843 0.000000 -0.048082 157 83 134 1
0.111208 0.435895 -0.369934 0.103429 -0.229875 -0.967709 137 107 175 1
-0.319905 -0.049009 0.193136 0.998843 -0.000000 0.048082 157 83 134 1
-0.295893 0.039216 0.226825 0.019190 -0.999042 0.039330 159 4 237 1
-0.168154 0.039848 0.241338 -0.011327 0.999199 -0.038375 159 4 237 1
0.041230 -0.566551 0.027939 0.809017 -0.000000 0.587785 37 150 178 1
-0.417038 0.377720 0.013096 -0.938998 -0.339913 -0.052369 175 213 5 1
0.319146 0.387273 -0.288761 -0.939693 0.000000 -0.342020 223 228 22 1
-0.355144 -0.024687 0.269932 0.000000 -0.999054 0.043496 159 4 237 1
0.433551 0.347349 0.232680 0.000000 0.000000 -1.000000 191 252 191 1
0.080405 0.029095 -0.005656 -0.004598 -0.998492 0.054707 159 4 237 1
-0.015123 -0.020322 0.370198 0.000000 -0.999054 0.043496 159 4 237 1
0.256501 0.415842 -0.355881 0.305897 -0.223259 -0.925517 137 107 175 1
0.396692 0.158527 0.161419 0.000000 -0.000000 1.000000 191 252 191 1
