ply
format ascii 1.0
element vertex 680
property float x
property float y
property float z
property float nx
property float ny
property float nz
property uchar red
property uchar green
property uchar blue
property float opacity
element face 0
property list uchar int vertex_indices
end_header
-0.096242 -0.134164 0.173699 0.000000 1.000000 0.000000 226 91 232 1
-0.182172 -0.134164 0.232486 0.000000 1.000000 0.000000 226 91 232 1
-0.329812 -0.134164 -0.119177 0.000000 -1.000000 -0.000000 226 91 232 1
0.264597 -0.172032 0.510731 0.000000 0.162525 0.986704 157 83 134 1
-0.253230 0.518421 -0.308446 0.000000 -0.992757 0.120137 52 224 7 1
0.072423 -0.173597 -0.226880 0.000000 1.000000 0.000000 226 91 232 1
0.228493 -0.134164 -0.072869 0.000000 -1.000000 -0.000000 226 91 232 1
0.284903 0.188929 -0.300748 0.000000 -0.003665 -0.999993 52 224 7 1
-0.218551 -0.134164 -0.218118 0.000000 1.000000 0.000000 226 91 232 1
-0.082027 0.144949 -0.300587 0.000000 0.003665 0.999993 52 224 7 1
-0.084562 -0.173597 0.047258 0.000000 -1.000000 -0.000000 226 91 232 1
0.266810 0.303285 -0.291579 0.000000 -0.075153 -0.997172 52 224 7 1
-0.401947 0.101849 -0.295116 1.000000 0.000000 0.000000 223 228 22 1
0.475568 -0.145985 0.522569 0.000000 -0.163901 -0.986477 159 191 89 1
-0.462765 0.116476 -0.087426 0.000000 -1.000000 -0.000000 175 213 5 1
0.154555 -0.172616 -0.128020 0.000000 0.000000 -1.000000 226 91 232 1
0.388058 0.471766 -0.300179 0.000000 0.092208 0.995740 223 228 22 1
-0.023959 -0.134164 0.367711 0.000000 -1.000000 -0.000000 226 91 232 1
0.103587 0.307669 -0.291910 0.000000 0.075153 0.997172 52 224 7 1
0.209915 -0.134164 0.483953 0.000000 1.000000 0.000000 226 91 232 1
0.410416 -0.475613 -0.352409 0.000000 -0.168838 0.985644 159 191 89 1
0.313836 0.410847 -0.313549 0.000000 0.094108 0.995562 52 224 7 1
-0.427081 0.010397 -0.302708 0.000000 -0.034716 0.999397 223 228 22 1
-0.021253 0.396968 -0.312237 0.000000 0.094108 0.995562 52 224 7 1
0.100080 0.270495 -0.289108 0.000000 -0.075153 -0.997172 52 224 7 1
-0.412645 -0.033483 -0.288333 0.000000 0.046618 -0.998913 223 228 22 1
0.404420 0.617991 -0.332750 0.000000 -0.124824 -0.992179 223 228 22 1
-0.300426 -0.134164 0.395763 0.000000 1.000000 0.000000 226 91 232 1
0.477705 0.116476 0.332158 0.000000 -1.000000 -0.000000 175 213 5 1
0.417190 0.260730 -0.286929 0.000000 -0.034222 -0.999414 223 228 22 1
0.130457 -0.173597 0.430886 0.000000 -1.000000 -0.000000 226 91 232 1
-0.034003 -0.154183 -0.302455 0.000000 -0.000000 1.000000 157 83 134 1
-0.222131 -0.134164 0.287326 0.000000 1.000000 0.000000 226 91 232 1
0.453771 0.132249 -0.144512 0.000000 -1.000000 -0.000000 175 213 5 1
-0.126347 0.566181 -0.312406 0.000000 0.120137 0.992757 52 224 7 1
-0.230900 0.663058 -0.322874 0.000000 0.132805 0.991142 10 43 224 1
-0.155734 0.328209 -0.293458 0.000000 -0.075153 -0.997172 52 224 7 1
0.385287 0.675009 -0.324475 0.000000 0.132805 0.991142 10 43 224 1
-0.144282 0.286517 -0.306134 0.000000 -0.075153 -0.997172 52 224 7 1
0.418271 0.464693 -0.313376 1.000000 0.000000 0.000000 223 228 22 1
0.235918 -0.158364 0.028137 0.000000 0.000000 -1.000000 226 91 232 1
0.226156 -0.173597 0.388586 0.000000 -1.000000 -0.000000 226 91 232 1
0.251574 -0.134164 0.392821 0.000000 1.000000 0.000000 226 91 232 1
0.307521 -0.173597 -0.084968 0.000000 -1.000000 -0.000000 226 91 232 1
0.102917 0.570697 -0.312952 0.000000 0.120137 0.992757 52 224 7 1
0.179511 0.334144 -0.293905 0.000000 -0.075153 -0.997172 52 224 7 1
-0.253503 -0.173597 0.044217 0.000000 -1.000000 -0.000000 226 91 232 1
-0.160908 -0.173597 0.417597 0.000000 1.000000 0.000000 226 91 232 1
-0.223919 -0.134164 -0.173939 0.000000 -1.000000 -0.000000 226 91 232 1
0.411199 -0.362854 -0.334877 0.000000 0.137719 -0.990471 159 191 89 1
-0.002136 -0.134164 0.264490 0.000000 -1.000000 -0.000000 226 91 232 1
-0.454800 0.116476 0.069678 0.000000 -1.000000 -0.000000 175 213 5 1
0.076841 -0.134164 -0.170704 0.000000 1.000000 0.000000 226 91 232 1
0.157716 0.657009 -0.322063 0.000000 -0.132805 -0.991142 10 43 224 1
-0.351097 -0.173597 0.099053 0.000000 -1.000000 -0.000000 226 91 232 1
0.081940 -0.134164 0.329136 0.000000 1.000000 0.000000 226 91 232 1
0.115421 0.138810 -0.284791 0.000000 -0.003665 -0.999993 52 224 7 1
-0.018763 -0.173597 -0.105746 0.000000 1.000000 0.000000 226 91 232 1
0.470571 0.021689 0.474526 0.000000 0.209391 0.977832 191 252 191 1
0.453615 0.087612 0.459791 0.000000 -0.223894 -0.974613 191 252 191 1
0.002751 -0.134164 0.070172 0.000000 1.000000 0.000000 226 91 232 1
0.303127 -0.136961 0.036023 0.000000 0.000000 -1.000000 226 91 232 1
0.380508 -0.173597 -0.279097 0.000000 1.000000 0.000000 157 83 134 1
0.251498 0.300849 -0.307214 0.000000 0.075153 0.997172 52 224 7 1
-0.031968 -0.134164 0.091408 0.000000 1.000000 0.000000 226 91 232 1
0.456160 -0.405694 0.540499 0.000000 0.095215 0.995457 159 191 89 1
0.272629 -0.173597 0.338023 0.000000 1.000000 0.000000 226 91 232 1
0.405603 -0.053659 -0.305388 0.000000 0.052393 -0.998627 223 228 22 1
0.463719 0.132249 0.097652 0.000000 -1.000000 -0.000000 175 213 5 1
0.345044 -0.168473 0.192180 0.000000 0.000000 -1.000000 226 91 232 1
0.434044 0.131827 0.135108 -1.000000 0.000000 0.000000 175 213 5 1
0.157895 -0.150058 0.507112 0.000000 0.162525 0.986704 157 83 134 1
0.271359 -0.134164 -0.203881 0.000000 -1.000000 -0.000000 226 91 232 1
0.263094 -0.152912 -0.302455 0.000000 -0.000000 1.000000 157 83 134 1
0.141993 0.520442 -0.306871 0.000000 0.120137 0.992757 52 224 7 1
-0.375685 -0.173597 0.119616 0.000000 -1.000000 -0.000000 226 91 232 1
0.217488 0.532296 -0.324194 0.000000 -0.120137 -0.992757 52 224 7 1
-0.053333 -0.156189 0.036023 0.000000 -0.000000 1.000000 226 91 232 1
-0.303028 -0.153969 -0.302455 0.000000 0.000000 -1.000000 157 83 134 1
-0.152452 -0.134164 0.242583 0.000000 -1.000000 -0.000000 226 91 232 1
-0.262346 -0.173597 0.384569 0.000000 -1.000000 -0.000000 226 91 232 1
0.040325 0.564950 -0.328145 0.000000 -0.120137 -0.992757 52 224 7 1
0.467523 -0.537963 0.566601 0.000000 -0.059627 -0.998221 159 191 89 1
-0.070777 -0.134164 -0.065297 0.000000 -1.000000 -0.000000 226 91 232 1
0.355292 -0.134164 0.054686 0.000000 1.000000 0.000000 157 83 134 1
-0.401947 -0.168771 -0.121360 -1.000000 0.000000 0.000000 157 83 134 1
-0.486321 -0.728033 0.573179 0.000000 -1.000000 -0.000000 159 191 89 1
0.103281 -0.134164 -0.044296 0.000000 1.000000 0.000000 226 91 232 1
0.449360 -0.081457 0.495264 0.000000 0.181828 0.983330 191 252 191 1
0.449264 0.116476 -0.024004 0.000000 1.000000 0.000000 175 213 5 1
-0.125878 -0.134164 0.112538 0.000000 -1.000000 -0.000000 226 91 232 1
-0.024382 -0.173597 -0.256167 0.000000 1.000000 0.000000 226 91 232 1
-0.480062 0.132249 -0.074210 0.000000 -1.000000 -0.000000 175 213 5 1
-0.006719 -0.153202 -0.286681 0.000000 -0.000000 1.000000 157 83 134 1
-0.038264 0.159399 -0.284867 0.000000 -0.003665 -0.999993 52 224 7 1
-0.496587 0.121883 -0.118622 1.000000 0.000000 0.000000 175 213 5 1
-0.351180 0.675659 -0.340477 0.000000 -0.132805 -0.991142 10 43 224 1
0.313480 -0.134213 0.504494 0.000000 -0.000000 1.000000 157 83 134 1
-0.054614 0.451827 -0.317423 0.000000 -0.094108 -0.995562 52 224 7 1
0.301149 -0.134164 0.481054 0.000000 -1.000000 -0.000000 226 91 232 1
0.070749 0.293865 -0.306687 0.000000 0.075153 0.997172 52 224 7 1
0.442678 0.116476 0.251667 0.000000 1.000000 0.000000 175 213 5 1
-0.305965 -0.134164 -0.133361 0.000000 1.000000 0.000000 226 91 232 1
0.385759 0.333000 -0.309637 0.000000 0.075153 0.997172 52 224 7 1
0.282014 -0.134164 0.019409 0.000000 -1.000000 -0.000000 226 91 232 1
0.454517 -0.362156 0.552075 0.000000 0.106394 0.994324 159 191 89 1
-0.180819 -0.134164 -0.208289 0.000000 -1.000000 -0.000000 226 91 232 1
0.074434 0.400054 -0.312529 0.000000 -0.094108 -0.995562 52 224 7 1
0.452513 0.116476 -0.159402 0.000000 1.000000 0.000000 175 213 5 1
0.455216 0.132249 0.077782 0.000000 -1.000000 -0.000000 175 213 5 1
0.019867 0.670466 -0.339781 0.000000 -0.132805 -0.991142 10 43 224 1
-0.195111 0.275092 -0.289454 0.000000 -0.075153 -0.997172 52 224 7 1
0.406350 0.675801 -0.325195 0.000000 1.000000 0.000000 223 228 22 1
-0.079278 0.671231 -0.323969 0.000000 -0.132805 -0.991142 10 43 224 1
0.369000 0.193843 -0.284993 0.000000 -0.003665 -0.999993 52 224 7 1
0.370401 -0.173597 0.132017 0.000000 -1.000000 -0.000000 157 83 134 1
0.216332 0.441605 -0.316456 0.000000 0.094108 0.995562 52 224 7 1
0.408373 -0.514968 -0.343259 0.000000 0.178916 -0.983864 159 191 89 1
0.028044 0.138639 -0.284791 0.000000 0.003665 0.999993 52 224 7 1
0.291506 -0.151047 -0.302455 0.000000 -0.000000 1.000000 157 83 134 1
-0.284172 -0.173597 0.354073 0.000000 1.000000 0.000000 226 91 232 1
0.325883 0.456543 -0.302025 0.000000 -0.094108 -0.995562 52 224 7 1
0.231225 -0.134164 -0.197287 0.000000 1.000000 0.000000 226 91 232 1
0.466078 -0.483804 0.562973 0.000000 0.074035 0.997256 159 191 89 1
0.237740 0.416482 -0.298238 0.000000 0.094108 0.995562 52 224 7 1
0.090150 0.535672 -0.308714 0.000000 0.120137 0.992757 52 224 7 1
-0.403373 0.285998 -0.287830 0.000000 0.041164 0.999152 223 228 22 1
0.027833 -0.134164 0.519625 0.000000 1.000000 0.000000 157 83 134 1
0.344652 0.587129 -0.314941 0.000000 0.120137 0.992757 52 224 7 1
-0.158322 -0.173597 -0.169317 0.000000 1.000000 0.000000 226 91 232 1
0.116338 -0.173597 -0.111370 0.000000 -1.000000 -0.000000 226 91 232 1
-0.387659 0.578026 -0.313839 0.000000 -0.120137 -0.992757 52 224 7 1
0.472056 -0.101834 0.514863 0.000000 -0.175650 -0.984453 191 252 191 1
0.347773 -0.173597 0.446636 0.000000 1.000000 0.000000 226 91 232 1
-0.013644 0.312341 -0.292262 0.000000 -0.075153 -0.997172 52 224 7 1
0.049356 -0.173597 -0.092608 0.000000 -1.000000 -0.000000 226 91 232 1
0.288114 -0.173597 -0.129899 0.000000 -1.000000 -0.000000 226 91 232 1
-0.146228 0.182455 -0.300725 0.000000 0.003665 0.999993 52 224 7 1
0.012220 0.186451 -0.284966 0.000000 -0.003665 -0.999993 52 224 7 1
-0.397068 -0.173597 0.303417 0.000000 1.000000 0.000000 157 83 134 1
-0.416870 -0.240947 -0.304236 0.000000 -0.103627 0.994616 159 191 89 1
0.262083 -0.134164 -0.108899 0.000000 -1.000000 -0.000000 226 91 232 1
-0.339081 0.267405 -0.288875 0.000000 0.075153 0.997172 52 224 7 1
0.476915 -0.507405 0.548962 0.000000 -0.068040 -0.997683 159 191 89 1
-0.226705 -0.173597 0.478633 0.000000 1.000000 0.000000 226 91 232 1
-0.087765 -0.134164 -0.006764 0.000000 1.000000 0.000000 226 91 232 1
-0.160403 0.274375 -0.289400 0.000000 0.075153 0.997172 52 224 7 1
-0.496529 -0.041554 0.487505 0.000000 0.192495 0.981298 191 252 191 1
0.379529 -0.173597 0.158858 0.000000 -1.000000 -0.000000 157 83 134 1
0.386724 -0.154709 0.213316 -1.000000 0.000000 0.000000 157 83 134 1
0.262749 -0.173597 0.299009 0.000000 1.000000 0.000000 226 91 232 1
-0.102200 0.589917 -0.315278 0.000000 0.120137 0.992757 52 224 7 1
-0.303059 0.596881 -0.316567 0.000000 0.992757 -0.120137 52 224 7 1
-0.203271 0.580201 -0.314102 0.000000 -0.120137 -0.992757 52 224 7 1
-0.336398 -0.134164 0.038098 0.000000 1.000000 0.000000 226 91 232 1
-0.074398 -0.134164 0.202742 0.000000 1.000000 0.000000 226 91 232 1
0.143468 -0.173597 0.136379 0.000000 1.000000 0.000000 226 91 232 1
0.474488 -0.413897 0.557133 0.000000 0.092633 0.995700 159 191 89 1
-0.017816 -0.145149 0.036023 0.000000 -0.000000 1.000000 226 91 232 1
0.386724 -0.145713 0.184233 1.000000 0.000000 0.000000 157 83 134 1
-0.496587 -0.421079 0.557632 -1.000000 0.000000 0.000000 159 191 89 1
-0.333155 0.179090 -0.300712 0.000000 -0.003665 -0.999993 52 224 7 1
0.004223 -0.173597 0.277709 0.000000 1.000000 0.000000 226 91 232 1
-0.215734 0.335673 -0.309838 0.000000 -0.075153 -0.997172 52 224 7 1
0.329583 -0.173597 0.112698 0.000000 1.000000 0.000000 226 91 232 1
-0.129589 -0.173597 0.000452 0.000000 -1.000000 -0.000000 226 91 232 1
-0.204894 -0.134164 -0.030349 0.000000 -1.000000 -0.000000 226 91 232 1
-0.179529 -0.134164 -0.045647 0.000000 1.000000 0.000000 226 91 232 1
-0.470892 -0.395232 0.555340 0.000000 0.097598 0.995226 159 191 89 1
0.006598 -0.173597 -0.263116 0.000000 -1.000000 -0.000000 226 91 232 1
0.126171 -0.155327 0.340450 0.000000 -0.000000 1.000000 226 91 232 1
-0.189390 -0.173597 0.426360 0.000000 1.000000 0.000000 226 91 232 1
0.353715 0.146733 -0.300594 0.000000 0.003665 0.999993 52 224 7 1
0.343931 -0.173597 0.374326 0.000000 -1.000000 -0.000000 226 91 232 1
-0.065542 -0.173597 0.053207 0.000000 1.000000 0.000000 226 91 232 1
-0.361962 -0.173597 0.208285 0.000000 1.000000 0.000000 226 91 232 1
-0.490804 -0.562380 0.568000 0.000000 -0.053131 -0.998588 159 191 89 1
0.276630 -0.173597 0.227357 0.000000 1.000000 0.000000 226 91 232 1
-0.496587 0.116861 0.194588 -1.000000 0.000000 0.000000 175 213 5 1
-0.263960 -0.134164 -0.287198 0.000000 -1.000000 -0.000000 157 83 134 1
-0.100351 -0.144380 0.340450 0.000000 -0.000000 1.000000 226 91 232 1
-0.357769 0.590058 -0.331184 0.000000 0.120137 0.992757 52 224 7 1
0.271748 0.528322 -0.323713 0.000000 -0.120137 -0.992757 52 224 7 1
0.462006 -0.230466 0.519688 0.000000 -0.142023 -0.989863 159 191 89 1
0.347139 0.169881 -0.300679 0.000000 -0.003665 -0.999993 52 224 7 1
0.467324 0.132249 0.427667 0.000000 -1.000000 -0.000000 175 213 5 1
0.128520 -0.173597 0.008508 0.000000 -1.000000 -0.000000 226 91 232 1
0.134867 -0.134164 -0.201810 0.000000 -1.000000 -0.000000 226 91 232 1
0.101345 0.279091 -0.305574 0.000000 0.075153 0.997172 52 224 7 1
-0.461908 0.116476 -0.201482 0.000000 1.000000 0.000000 175 213 5 1
-0.102548 -0.173597 0.319609 0.000000 -1.000000 -0.000000 226 91 232 1
0.342652 0.178039 -0.284935 0.000000 -0.003665 -0.999993 52 224 7 1
0.167048 -0.134164 -0.065841 0.000000 1.000000 0.000000 226 91 232 1
0.271541 -0.134164 0.156694 0.000000 -1.000000 -0.000000 226 91 232 1
-0.063205 -0.134164 -0.290248 0.000000 1.000000 0.000000 157 83 134 1
-0.290383 0.277053 -0.289602 0.000000 0.075153 0.997172 52 224 7 1
0.466452 0.132249 -0.129758 0.000000 -1.000000 -0.000000 175 213 5 1
0.023462 -0.134164 0.272389 0.000000 -1.000000 -0.000000 226 91 232 1
0.256466 -0.173597 0.200486 0.000000 -1.000000 -0.000000 226 91 232 1
0.089356 0.294820 -0.306759 0.000000 -0.075153 -0.997172 52 224 7 1
-0.473871 0.132249 -0.291495 0.000000 1.000000 0.000000 175 213 5 1
0.195060 -0.134164 -0.050103 0.000000 -1.000000 -0.000000 226 91 232 1
-0.144312 0.595415 -0.328679 0.000000 0.992757 -0.120137 52 224 7 1
-0.202022 -0.134164 -0.097270 0.000000 -1.000000 -0.000000 226 91 232 1
-0.368960 -0.134164 0.051423 0.000000 -1.000000 -0.000000 226 91 232 1
0.418271 -0.436838 -0.330724 -1.000000 0.000000 0.000000 159 191 89 1
-0.345816 -0.173597 -0.211646 0.000000 1.000000 0.000000 226 91 232 1
-0.049224 -0.134164 -0.189058 0.000000 1.000000 0.000000 226 91 232 1
-0.144748 -0.134164 0.266100 0.000000 1.000000 0.000000 226 91 232 1
-0.193070 -0.173597 0.147967 0.000000 1.000000 0.000000 226 91 232 1
-0.153773 -0.134164 -0.236677 0.000000 1.000000 0.000000 226 91 232 1
0.242605 -0.156794 0.524204 0.000000 0.161289 0.986907 157 83 134 1
0.247229 0.150664 -0.300608 0.000000 0.003665 0.999993 52 224 7 1
-0.325426 -0.134164 0.130199 0.000000 -1.000000 -0.000000 226 91 232 1
0.441890 -0.349746 0.534763 0.000000 -0.110160 -0.993914 159 191 89 1
-0.382421 -0.134164 0.294929 0.000000 1.000000 0.000000 157 83 134 1
0.107640 -0.173597 0.200251 0.000000 -1.000000 -0.000000 226 91 232 1
0.043050 0.310813 -0.307965 0.000000 0.075153 0.997172 52 224 7 1
-0.244788 -0.134164 0.262181 0.000000 1.000000 0.000000 226 91 232 1
-0.282973 -0.134164 0.475649 0.000000 -1.000000 -0.000000 226 91 232 1
0.034443 -0.173597 0.158876 0.000000 1.000000 0.000000 226 91 232 1
0.075249 -0.134164 -0.052473 0.000000 -1.000000 -0.000000 226 91 232 1
0.151580 -0.173597 0.058260 0.000000 -1.000000 -0.000000 226 91 232 1
-0.492886 -0.517888 0.565451 0.000000 0.064966 0.997887 159 191 89 1
-0.420790 0.236912 -0.301864 0.000000 -0.027796 -0.999614 223 228 22 1
0.192382 -0.134164 0.322444 0.000000 -1.000000 -0.000000 226 91 232 1
-0.491789 0.132249 0.018101 0.000000 -1.000000 -0.000000 175 213 5 1
0.166287 -0.134164 0.150893 0.000000 -1.000000 -0.000000 226 91 232 1
0.411446 0.231496 -0.301671 0.000000 0.026302 0.999654 223 228 22 1
0.407744 0.000437 -0.303001 0.000000 0.037464 -0.999298 223 228 22 1
-0.090967 0.458645 -0.318067 0.000000 -0.094108 -0.995562 52 224 7 1
0.478026 0.116476 0.006493 0.000000 -1.000000 -0.000000 175 213 5 1
0.434044 0.117144 0.096740 1.000000 0.000000 0.000000 175 213 5 1
0.263224 0.671022 -0.339855 0.000000 -0.132805 -0.991142 10 43 224 1
-0.454387 0.132249 -0.278118 0.000000 -1.000000 -0.000000 175 213 5 1
0.386724 -0.675060 -0.392255 1.000000 0.000000 0.000000 159 191 89 1
-0.401947 -0.134996 -0.073239 1.000000 0.000000 0.000000 157 83 134 1
-0.308032 0.648535 -0.320928 0.000000 -0.132805 -0.991142 10 43 224 1
0.191517 -0.173597 0.369947 0.000000 1.000000 0.000000 226 91 232 1
0.176209 0.412788 -0.313732 0.000000 -0.094108 -0.995562 52 224 7 1
-0.423566 -0.564147 -0.352820 0.000000 -0.192443 0.981308 159 191 89 1
-0.237145 -0.170532 0.496607 0.000000 -0.000000 1.000000 226 91 232 1
-0.096270 -0.173597 0.000059 0.000000 -1.000000 -0.000000 226 91 232 1
0.330685 0.446824 -0.316950 0.000000 -0.094108 -0.995562 52 224 7 1
-0.380720 0.557904 -0.327293 0.000000 -0.120137 -0.992757 52 224 7 1
0.304586 -0.135726 -0.120134 0.000000 -0.000000 1.000000 226 91 232 1
0.071164 -0.134164 -0.199827 0.000000 1.000000 0.000000 226 91 232 1
-0.466493 0.116476 0.225934 0.000000 1.000000 0.000000 175 213 5 1
-0.415784 0.124785 -0.300522 0.000000 -0.003112 -0.999995 223 228 22 1
-0.349960 -0.173597 -0.056211 0.000000 -1.000000 -0.000000 226 91 232 1
-0.452014 -0.033522 0.502012 0.000000 0.193824 0.981036 191 252 191 1
-0.250161 0.345450 -0.295785 0.000000 0.997172 -0.075153 52 224 7 1
0.396299 -0.699158 -0.381879 0.000000 0.218554 -0.975825 159 191 89 1
-0.404761 0.379190 -0.292920 0.000000 -0.066773 -0.997768 223 228 22 1
-0.081504 0.174803 -0.284923 0.000000 -0.003665 -0.999993 52 224 7 1
-0.013863 -0.173597 -0.132139 0.000000 -1.000000 -0.000000 226 91 232 1
-0.065887 -0.173597 0.340255 0.000000 -1.000000 -0.000000 226 91 232 1
-0.218272 -0.173597 -0.117649 0.000000 1.000000 0.000000 226 91 232 1
0.155625 -0.134164 -0.041576 0.000000 -1.000000 -0.000000 226 91 232 1
-0.401947 -0.150011 0.042616 -1.000000 0.000000 0.000000 157 83 134 1
-0.270699 -0.173597 -0.220038 0.000000 -1.000000 -0.000000 226 91 232 1
0.222026 -0.167266 -0.128020 0.000000 0.000000 -1.000000 226 91 232 1
0.407526 0.596328 -0.313933 0.000000 -0.121655 -0.992572 223 228 22 1
0.215810 0.465746 -0.318738 0.000000 -0.094108 -0.995562 52 224 7 1
-0.365148 -0.173597 0.488238 0.000000 1.000000 0.000000 226 91 232 1
-0.402070 0.475537 -0.300560 0.000000 -0.093245 -0.995643 52 224 7 1
-0.410190 -0.070644 -0.290637 0.000000 -0.056835 0.998384 223 228 22 1
-0.103000 0.436054 -0.300088 0.000000 -0.094108 -0.995562 52 224 7 1
-0.109480 -0.159585 0.192180 0.000000 0.000000 -1.000000 226 91 232 1
0.446512 0.116476 0.002380 0.000000 -1.000000 -0.000000 175 213 5 1
-0.467725 -0.608989 0.570173 0.000000 0.040732 0.999170 159 191 89 1
0.272482 -0.173597 0.265125 0.000000 -1.000000 -0.000000 226 91 232 1
0.209282 -0.135253 0.028137 0.000000 0.000000 -1.000000 226 91 232 1
0.375202 0.135533 -0.300553 0.000000 -0.003665 -0.999993 52 224 7 1
-0.017520 -0.173597 0.428777 0.000000 1.000000 0.000000 226 91 232 1
0.348376 0.421449 -0.298707 0.000000 -0.094108 -0.995562 52 224 7 1
0.016140 0.431399 -0.315492 0.000000 -0.094108 -0.995562 52 224 7 1
-0.288890 -0.173597 0.045384 0.000000 -1.000000 -0.000000 226 91 232 1
0.063151 -0.134164 0.467909 0.000000 1.000000 0.000000 226 91 232 1
0.331030 -0.135633 -0.120134 0.000000 0.000000 -1.000000 226 91 232 1
-0.011585 -0.173597 0.408600 0.000000 1.000000 0.000000 226 91 232 1
0.400569 0.497694 -0.302799 0.000000 0.099336 0.995054 223 228 22 1
-0.263649 -0.173597 -0.072988 0.000000 1.000000 0.000000 226 91 232 1
0.166313 -0.148841 -0.286681 0.000000 -0.000000 1.000000 157 83 134 1
0.322075 -0.153046 0.523592 0.000000 0.161289 0.986907 157 83 134 1
-0.222375 -0.167093 -0.276290 0.000000 -0.000000 1.000000 157 83 134 1
0.047618 0.665614 -0.323216 0.000000 0.132805 0.991142 10 43 224 1
-0.409151 -0.356776 -0.334101 0.000000 0.136044 -0.990703 159 191 89 1
0.277427 0.398083 -0.296499 0.000000 -0.094108 -0.995562 52 224 7 1
-0.479385 0.010420 0.476944 0.000000 0.206380 0.978472 191 252 191 1
-0.373379 -0.172605 -0.276290 0.000000 -0.000000 1.000000 157 83 134 1
-0.007664 -0.162433 -0.302455 0.000000 0.000000 -1.000000 157 83 134 1
0.466640 -0.296913 0.528660 0.000000 -0.124271 -0.992248 159 191 89 1
0.076663 0.184014 -0.300730 0.000000 -0.003665 -0.999993 52 224 7 1
0.393178 0.314889 -0.288860 0.000000 -0.049099 -0.998794 52 224 7 1
0.409823 0.568850 -0.310251 0.000000 0.117797 0.993038 223 228 22 1
-0.200009 0.444905 -0.300925 0.000000 0.094108 0.995562 52 224 7 1
-0.146135 0.470106 -0.317592 0.000000 0.995562 -0.094108 52 224 7 1
0.170382 -0.134164 0.230426 0.000000 1.000000 0.000000 226 91 232 1
-0.319458 -0.134164 -0.174014 0.000000 1.000000 0.000000 226 91 232 1
0.446774 -0.421597 0.542027 0.000000 -0.090965 -0.995854 159 191 89 1
-0.199707 0.173859 -0.284920 0.000000 -0.003665 -0.999993 52 224 7 1
0.008564 -0.134164 0.475719 0.000000 1.000000 0.000000 226 91 232 1
-0.117038 0.406737 -0.313160 0.000000 -0.094108 -0.995562 52 224 7 1
-0.495233 -0.191631 0.529741 0.000000 -0.151763 -0.988417 159 191 89 1
0.188632 -0.134164 0.417228 0.000000 -1.000000 -0.000000 226 91 232 1
0.281633 0.444153 -0.316697 0.000000 -0.094108 -0.995562 52 224 7 1
-0.284610 0.304171 -0.307464 0.000000 -0.075153 -0.997172 52 224 7 1
-0.368723 0.532810 -0.308368 0.000000 -0.120137 -0.992757 52 224 7 1
-0.363595 0.427888 -0.299316 0.000000 0.094108 0.995562 52 224 7 1
0.357971 0.445403 -0.300972 0.000000 -0.094108 -0.995562 52 224 7 1
0.460750 0.132249 0.270779 0.000000 -1.000000 -0.000000 175 213 5 1
0.157584 0.297519 -0.291145 0.000000 -0.075153 -0.997172 52 224 7 1
-0.290725 -0.173597 0.489500 0.000000 1.000000 0.000000 226 91 232 1
0.156549 -0.173597 0.232094 0.000000 -1.000000 -0.000000 226 91 232 1
0.161290 0.335506 -0.309826 0.000000 -0.075153 -0.997172 52 224 7 1
-0.053926 0.344873 -0.303447 0.000000 0.997172 -0.075153 52 224 7 1
-0.466652 -0.213280 0.533091 0.000000 -0.146000 -0.989285 159 191 89 1
-0.356228 -0.173597 0.288719 0.000000 1.000000 0.000000 226 91 232 1
-0.401947 -0.149835 -0.042571 1.000000 0.000000 0.000000 157 83 134 1
-0.035725 -0.173597 -0.074429 0.000000 -1.000000 -0.000000 226 91 232 1
-0.171777 -0.134164 0.383560 0.000000 1.000000 0.000000 226 91 232 1
0.308778 -0.172656 -0.286681 0.000000 0.000000 -1.000000 157 83 134 1
-0.411373 -0.390754 -0.338759 0.000000 -0.145414 0.989371 159 191 89 1
0.281278 -0.134164 0.303856 0.000000 -1.000000 -0.000000 226 91 232 1
-0.265442 -0.134164 0.022509 0.000000 1.000000 0.000000 226 91 232 1
-0.118338 -0.134164 0.237298 0.000000 1.000000 0.000000 226 91 232 1
0.012008 0.396932 -0.296390 0.000000 0.094108 0.995562 52 224 7 1
-0.188334 0.330593 -0.293637 0.000000 0.075153 0.997172 52 224 7 1
-0.066993 -0.134164 0.378592 0.000000 1.000000 0.000000 226 91 232 1
-0.056132 -0.145826 0.340450 0.000000 -0.000000 1.000000 226 91 232 1
-0.273585 0.428447 -0.315213 0.000000 -0.094108 -0.995562 52 224 7 1
0.232521 -0.173597 0.096299 0.000000 1.000000 0.000000 226 91 232 1
0.234516 -0.165230 0.504494 0.000000 -0.000000 1.000000 157 83 134 1
0.316120 0.182127 -0.284950 0.000000 -0.003665 -0.999993 52 224 7 1
0.050914 0.302315 -0.291506 0.000000 0.075153 0.997172 52 224 7 1
-0.225644 0.304398 -0.291663 0.000000 -0.075153 -0.997172 52 224 7 1
-0.133928 -0.134164 0.152388 0.000000 1.000000 0.000000 226 91 232 1
-0.401023 -0.134164 -0.250149 0.000000 -1.000000 -0.000000 157 83 134 1
-0.179648 -0.134164 -0.001948 0.000000 -1.000000 -0.000000 226 91 232 1
-0.314758 0.266439 -0.294725 0.000000 0.997172 -0.075153 52 224 7 1
-0.230416 -0.134164 0.026870 0.000000 -1.000000 -0.000000 226 91 232 1
-0.098916 0.657084 -0.322073 0.000000 0.132805 0.991142 10 43 224 1
0.472007 0.132249 0.034766 0.000000 -1.000000 -0.000000 175 213 5 1
0.371006 0.228090 -0.294296 0.000000 -0.999993 0.003665 52 224 7 1
0.467047 -0.641171 0.555611 0.000000 0.032305 0.999478 159 191 89 1
-0.166432 -0.158966 0.524559 0.000000 0.161289 0.986907 157 83 134 1
-0.299896 -0.173597 0.470354 0.000000 -1.000000 -0.000000 226 91 232 1
-0.047884 0.430185 -0.299533 0.000000 0.094108 0.995562 52 224 7 1
0.443955 0.132249 0.289744 0.000000 1.000000 0.000000 175 213 5 1
-0.485452 0.132249 0.050810 0.000000 -1.000000 -0.000000 175 213 5 1
-0.205456 -0.134164 0.000490 0.000000 1.000000 0.000000 226 91 232 1
-0.014225 -0.134164 0.328146 0.000000 -1.000000 -0.000000 226 91 232 1
0.208010 0.661638 -0.338598 0.000000 0.132805 0.991142 10 43 224 1
-0.383472 0.438370 -0.300307 0.000000 -0.094108 -0.995562 52 224 7 1
-0.187270 -0.167998 -0.286681 0.000000 -0.000000 1.000000 157 83 134 1
0.017541 -0.134164 -0.201482 0.000000 1.000000 0.000000 226 91 232 1
-0.433023 0.413587 -0.295268 0.000000 0.076222 0.997091 223 228 22 1
0.268228 -0.173597 -0.047190 0.000000 1.000000 0.000000 226 91 232 1
-0.146331 0.312912 -0.292305 0.000000 -0.075153 -0.997172 52 224 7 1
0.005978 -0.171748 0.184293 0.000000 -0.000000 1.000000 226 91 232 1
0.459514 0.132249 0.342489 0.000000 -1.000000 -0.000000 175 213 5 1
0.225753 -0.168549 0.526125 0.000000 -0.161289 -0.986907 157 83 134 1
-0.420770 0.333952 -0.289832 0.000000 0.054337 0.998523 223 228 22 1
0.213118 -0.173597 0.492468 0.000000 1.000000 0.000000 226 91 232 1
-0.166318 -0.153993 -0.276290 0.000000 -0.000000 1.000000 157 83 134 1
-0.427812 0.431137 -0.296466 0.000000 -0.081041 -0.996711 223 228 22 1
-0.381679 -0.134164 0.225128 0.000000 1.000000 0.000000 157 83 134 1
-0.478381 0.132249 -0.199283 0.000000 1.000000 0.000000 175 213 5 1
0.283668 -0.154900 -0.120134 0.000000 0.000000 -1.000000 226 91 232 1
0.289864 0.538055 -0.309002 0.000000 0.120137 0.992757 52 224 7 1
0.131529 -0.173597 0.301473 0.000000 -1.000000 -0.000000 226 91 232 1
-0.323159 -0.173597 0.049898 0.000000 1.000000 0.000000 226 91 232 1
0.386724 0.080752 -0.291426 -1.000000 0.000000 0.000000 223 228 22 1
-0.331644 -0.134164 0.298735 0.000000 1.000000 0.000000 226 91 232 1
0.025281 -0.134164 0.349528 0.000000 1.000000 0.000000 226 91 232 1
-0.361455 0.203912 -0.285030 0.000000 0.003665 0.999993 52 224 7 1
-0.305194 -0.173597 0.080799 0.000000 -1.000000 -0.000000 226 91 232 1
0.160008 -0.173597 0.380339 0.000000 1.000000 0.000000 226 91 232 1
-0.068270 -0.173597 -0.274418 0.000000 -1.000000 -0.000000 226 91 232 1
-0.070967 -0.159094 -0.302455 0.000000 0.000000 -1.000000 157 83 134 1
-0.163099 -0.173597 0.163024 0.000000 1.000000 0.000000 226 91 232 1
0.450864 0.132249 -0.280332 0.000000 -1.000000 -0.000000 175 213 5 1
-0.256034 -0.134164 0.081587 0.000000 1.000000 0.000000 226 91 232 1
-0.063692 -0.173597 -0.012031 0.000000 -1.000000 -0.000000 226 91 232 1
0.375260 0.176146 -0.300702 0.000000 0.003665 0.999993 52 224 7 1
-0.488278 -0.034243 0.502152 0.000000 0.193632 0.981074 191 252 191 1
0.265386 -0.173597 0.248188 0.000000 -1.000000 -0.000000 226 91 232 1
-0.135686 -0.173597 0.175656 0.000000 -1.000000 -0.000000 226 91 232 1
-0.433494 -0.516122 -0.346038 -1.000000 0.000000 0.000000 159 191 89 1
-0.190445 -0.134164 0.136161 0.000000 -1.000000 -0.000000 226 91 232 1
0.297642 0.159579 -0.284867 0.000000 0.003665 0.999993 52 224 7 1
-0.178091 -0.173597 -0.087007 0.000000 -1.000000 -0.000000 226 91 232 1
0.251629 -0.173597 -0.116990 0.000000 -1.000000 -0.000000 226 91 232 1
-0.116802 -0.173597 0.036454 0.000000 1.000000 0.000000 226 91 232 1
0.065153 -0.144648 0.522219 0.000000 0.161289 0.986907 157 83 134 1
0.220270 -0.168356 0.036023 0.000000 -0.000000 1.000000 226 91 232 1
0.315162 0.671754 -0.339954 0.000000 0.132805 0.991142 10 43 224 1
0.354344 -0.138952 -0.128020 0.000000 0.000000 -1.000000 157 83 134 1
0.481365 -0.669588 0.571634 -1.000000 0.000000 0.000000 159 191 89 1
0.434044 0.119184 0.381441 -1.000000 0.000000 0.000000 175 213 5 1
-0.455403 -0.309111 0.545948 0.000000 -0.120507 -0.992712 159 191 89 1
0.061752 0.273714 -0.305169 0.000000 0.075153 0.997172 52 224 7 1
-0.227596 0.539580 -0.309187 0.000000 -0.120137 -0.992757 52 224 7 1
-0.470041 -0.686096 0.572514 0.000000 -0.024270 -0.999705 159 191 89 1
0.094544 -0.173597 -0.007248 0.000000 -1.000000 -0.000000 226 91 232 1
-0.467222 0.132249 0.316489 0.000000 1.000000 0.000000 175 213 5 1
-0.159908 -0.173597 0.357994 0.000000 -1.000000 -0.000000 226 91 232 1
0.460724 0.132249 0.187140 0.000000 1.000000 0.000000 175 213 5 1
-0.478366 -0.473598 0.546371 0.000000 0.077074 0.997025 159 191 89 1
0.182202 -0.154721 0.184293 0.000000 -0.000000 1.000000 226 91 232 1
-0.463918 0.116476 0.271242 0.000000 1.000000 0.000000 175 213 5 1
-0.310771 -0.136483 0.028137 0.000000 0.000000 -1.000000 226 91 232 1
0.089804 0.553551 -0.326766 0.000000 0.120137 0.992757 52 224 7 1
-0.295668 -0.173597 0.289937 0.000000 1.000000 0.000000 226 91 232 1
-0.479009 -0.147033 0.522752 0.000000 -0.163622 -0.986523 159 191 89 1
-0.206513 -0.134164 0.073978 0.000000 -1.000000 -0.000000 226 91 232 1
-0.486327 0.116476 0.233650 0.000000 1.000000 0.000000 175 213 5 1
-0.087162 -0.173597 0.284039 0.000000 -1.000000 -0.000000 226 91 232 1
-0.247418 -0.134164 0.304570 0.000000 -1.000000 -0.000000 226 91 232 1
0.459250 -0.396517 0.555464 0.000000 -0.097256 -0.995259 159 191 89 1
-0.132977 -0.173597 -0.084949 0.000000 -1.000000 -0.000000 226 91 232 1
0.298897 -0.166702 0.496607 0.000000 0.000000 -1.000000 226 91 232 1
0.395249 0.648343 -0.336817 0.000000 0.129015 0.991643 10 43 224 1
-0.096364 -0.134164 0.137311 0.000000 -1.000000 -0.000000 226 91 232 1
-0.107174 0.311817 -0.292222 0.000000 -0.075153 -0.997172 52 224 7 1
0.212591 0.267350 -0.288871 0.000000 -0.075153 -0.997172 52 224 7 1
-0.266287 0.454407 -0.301823 0.000000 0.094108 0.995562 52 224 7 1
-0.121537 0.557621 -0.327258 0.000000 -0.120137 -0.992757 52 224 7 1
-0.449495 0.116476 0.193997 0.000000 1.000000 0.000000 175 213 5 1
0.114859 -0.138627 -0.276290 0.000000 0.000000 -1.000000 157 83 134 1
-0.469970 0.132249 0.413852 0.000000 1.000000 0.000000 175 213 5 1
-0.466189 -0.203487 0.515615 0.000000 -0.149234 -0.988802 159 191 89 1
-0.056947 -0.134164 -0.104039 0.000000 -1.000000 -0.000000 226 91 232 1
0.458872 0.132249 -0.248904 0.000000 1.000000 0.000000 175 213 5 1
-0.033100 0.537190 -0.324786 0.000000 -0.120137 -0.992757 52 224 7 1
0.134764 0.589600 -0.315240 0.000000 0.120137 0.992757 52 224 7 1
-0.433494 0.281993 -0.302383 1.000000 0.000000 0.000000 223 228 22 1
-0.285377 -0.173597 0.451298 0.000000 -1.000000 -0.000000 226 91 232 1
0.226690 -0.151241 -0.302455 0.000000 0.000000 -1.000000 157 83 134 1
-0.460344 0.116476 -0.115778 0.000000 1.000000 0.000000 175 213 5 1
-0.370163 0.276571 -0.305384 0.000000 0.075153 0.997172 52 224 7 1
0.063563 -0.158974 0.028137 0.000000 0.000000 -1.000000 226 91 232 1
0.171753 0.439883 -0.300450 0.000000 0.094108 0.995562 52 224 7 1
0.447078 -0.472919 0.562139 0.000000 0.076931 0.997036 159 191 89 1
-0.496587 -0.607826 0.569520 1.000000 0.000000 0.000000 159 191 89 1
-0.453611 -0.333569 0.548773 0.000000 -0.114003 -0.993480 159 191 89 1
0.327001 -0.136634 0.184293 0.000000 0.000000 -1.000000 226 91 232 1
-0.401947 -0.154305 -0.262939 1.000000 0.000000 0.000000 157 83 134 1
-0.313451 -0.134164 -0.049627 0.000000 1.000000 0.000000 226 91 232 1
0.444362 0.132249 -0.160096 0.000000 -1.000000 -0.000000 175 213 5 1
0.383201 0.596901 -0.316400 0.000000 0.992757 -0.120137 223 228 22 1
-0.272652 -0.134164 -0.012965 0.000000 1.000000 0.000000 226 91 232 1
-0.147840 -0.173597 0.303743 0.000000 1.000000 0.000000 226 91 232 1
0.199121 0.187737 -0.300744 0.000000 0.003665 0.999993 52 224 7 1
-0.384327 0.306399 -0.291814 0.000000 0.075153 0.997172 52 224 7 1
-0.414087 -0.165011 -0.297042 0.000000 0.082760 -0.996569 223 228 22 1
-0.116871 0.278943 -0.289745 0.000000 0.075153 0.997172 52 224 7 1
0.393871 0.543255 -0.323255 0.000000 -0.112334 -0.993670 223 228 22 1
-0.262446 -0.173597 0.233432 0.000000 -1.000000 -0.000000 226 91 232 1
0.090859 -0.134815 0.496607 0.000000 0.000000 -1.000000 226 91 232 1
0.338336 -0.134164 0.295769 0.000000 1.000000 0.000000 226 91 232 1
-0.191540 -0.173597 0.332133 0.000000 -1.000000 -0.000000 226 91 232 1
0.097905 -0.134164 0.065486 0.000000 1.000000 0.000000 226 91 232 1
0.332475 -0.173597 -0.030397 0.000000 -1.000000 -0.000000 226 91 232 1
0.156001 -0.163859 0.192180 0.000000 0.000000 -1.000000 226 91 232 1
0.227871 -0.134164 -0.118761 0.000000 1.000000 0.000000 226 91 232 1
-0.413668 -0.288505 -0.309484 0.000000 0.116694 -0.993168 159 191 89 1
0.137173 0.296653 -0.306897 0.000000 0.075153 0.997172 52 224 7 1
0.179388 -0.134255 -0.276290 0.000000 -0.000000 1.000000 157 83 134 1
-0.210082 -0.173597 0.115119 0.000000 1.000000 0.000000 226 91 232 1
-0.189406 -0.156207 0.348337 0.000000 -0.000000 1.000000 226 91 232 1
0.443509 -0.552122 0.567412 0.000000 0.055860 0.998439 159 191 89 1
0.072386 0.155940 -0.284854 0.000000 0.003665 0.999993 52 224 7 1
-0.466104 -0.536771 0.566533 0.000000 -0.059944 -0.998202 159 191 89 1
-0.355936 -0.173597 -0.299706 0.000000 -1.000000 -0.000000 157 83 134 1
-0.337606 0.407057 -0.313191 0.000000 -0.094108 -0.995562 52 224 7 1
0.372666 -0.173597 0.354391 0.000000 1.000000 0.000000 157 83 134 1
0.104103 -0.153892 0.496607 0.000000 0.000000 -1.000000 226 91 232 1
0.374591 -0.165555 -0.302455 0.000000 -0.000000 1.000000 157 83 134 1
-0.487401 0.111753 0.470326 0.000000 0.225822 0.974169 191 252 191 1
0.348539 -0.134164 0.369186 0.000000 -1.000000 -0.000000 226 91 232 1
0.234689 -0.173597 -0.252701 0.000000 -1.000000 -0.000000 226 91 232 1
-0.001306 0.160382 -0.284870 0.000000 -0.003665 -0.999993 52 224 7 1
0.207261 -0.173597 -0.235379 0.000000 1.000000 0.000000 226 91 232 1
0.434044 -0.495617 0.550390 1.000000 0.000000 0.000000 159 191 89 1
0.446924 0.132249 -0.078343 0.000000 1.000000 0.000000 175 213 5 1
0.467527 0.116476 0.055198 0.000000 -1.000000 -0.000000 175 213 5 1
-0.167815 -0.173597 -0.272472 0.000000 -1.000000 -0.000000 226 91 232 1
-0.274261 -0.156591 -0.302455 0.000000 -0.000000 1.000000 157 83 134 1
0.143519 -0.134164 0.255982 0.000000 -1.000000 -0.000000 226 91 232 1
-0.469205 0.132249 -0.258443 0.000000 -1.000000 -0.000000 175 213 5 1
-0.496478 0.116476 -0.204577 0.000000 -1.000000 -0.000000 175 213 5 1
0.465761 0.073151 0.463186 0.000000 -0.221560 -0.975147 191 252 191 1
-0.055586 0.660913 -0.338501 0.000000 0.132805 0.991142 10 43 224 1
-0.038299 -0.134164 0.272949 0.000000 1.000000 0.000000 226 91 232 1
-0.173760 -0.173597 0.453495 0.000000 -1.000000 -0.000000 226 91 232 1
0.211679 -0.134164 0.446944 0.000000 1.000000 0.000000 226 91 232 1
-0.076512 -0.173597 -0.074589 0.000000 -1.000000 -0.000000 226 91 232 1
0.386724 -0.160326 0.249461 1.000000 0.000000 0.000000 157 83 134 1
0.446663 0.055112 0.467356 0.000000 0.218313 0.975879 191 252 191 1
0.176450 -0.173597 0.121007 0.000000 1.000000 0.000000 226 91 232 1
-0.019851 -0.173597 0.094828 0.000000 1.000000 0.000000 226 91 232 1
0.389177 -0.562837 -0.352565 0.000000 -0.192083 0.981379 159 191 89 1
0.453759 0.132249 0.254014 0.000000 -1.000000 -0.000000 175 213 5 1
-0.275846 -0.173597 0.421533 0.000000 -1.000000 -0.000000 226 91 232 1
0.296895 0.462153 -0.318399 0.000000 -0.094108 -0.995562 52 224 7 1
-0.107004 0.274314 -0.305214 0.000000 0.075153 0.997172 52 224 7 1
-0.209205 -0.173597 0.309440 0.000000 1.000000 0.000000 226 91 232 1
-0.294333 -0.134164 -0.111736 0.000000 1.000000 0.000000 226 91 232 1
-0.174492 0.219886 -0.300862 0.000000 0.003665 0.999993 52 224 7 1
-0.266409 -0.134164 0.051655 0.000000 -1.000000 -0.000000 226 91 232 1
-0.179214 0.208680 -0.285047 0.000000 -0.003665 -0.999993 52 224 7 1
-0.375310 -0.173597 0.513214 0.000000 -1.000000 -0.000000 157 83 134 1
0.301214 -0.173597 0.244872 0.000000 1.000000 0.000000 226 91 232 1
-0.385122 -0.156665 -0.128020 0.000000 -0.000000 1.000000 157 83 134 1
-0.034613 -0.153207 0.348337 0.000000 0.000000 -1.000000 226 91 232 1
-0.208767 0.302791 -0.307360 0.000000 0.075153 0.997172 52 224 7 1
-0.062342 -0.134164 -0.218422 0.000000 -1.000000 -0.000000 226 91 232 1
0.355562 0.470758 -0.310698 0.000000 -0.995562 0.094108 52 224 7 1
-0.227060 -0.173597 -0.206671 0.000000 -1.000000 -0.000000 226 91 232 1
0.338980 -0.173597 -0.190711 0.000000 -1.000000 -0.000000 226 91 232 1
0.460700 0.132249 -0.027427 0.000000 1.000000 0.000000 175 213 5 1
-0.003979 -0.173597 -0.065508 0.000000 -1.000000 -0.000000 226 91 232 1
-0.261656 -0.173597 0.487013 0.000000 -1.000000 -0.000000 226 91 232 1
-0.465699 -0.636666 0.555440 0.000000 -0.033509 -0.999438 159 191 89 1
0.075129 0.656930 -0.322053 0.000000 0.132805 0.991142 10 43 224 1
0.190809 -0.173597 0.466942 0.000000 1.000000 0.000000 226 91 232 1
0.038943 -0.173597 -0.056251 0.000000 1.000000 0.000000 226 91 232 1
-0.170412 -0.172706 0.504494 0.000000 -0.000000 1.000000 226 91 232 1
0.416118 0.285887 -0.287826 0.000000 0.041134 0.999154 223 228 22 1
-0.284040 0.664470 -0.323063 0.000000 -0.132805 -0.991142 10 43 224 1
0.386724 0.295820 -0.304956 -1.000000 0.000000 0.000000 52 224 7 1
0.214741 -0.173597 0.459336 0.000000 -1.000000 -0.000000 226 91 232 1
-0.282637 -0.134164 0.430199 0.000000 1.000000 0.000000 226 91 232 1
-0.460592 0.047199 0.485186 0.000000 0.215296 0.976549 191 252 191 1
-0.016154 -0.173597 0.175308 0.000000 1.000000 0.000000 226 91 232 1
-0.106486 -0.173597 -0.236422 0.000000 1.000000 0.000000 226 91 232 1
0.022593 0.183174 -0.300727 0.000000 0.003665 0.999993 52 224 7 1
-0.423389 -0.135808 0.520774 0.000000 -0.161289 -0.986907 157 83 134 1
-0.150541 -0.134164 0.172435 0.000000 1.000000 0.000000 226 91 232 1
0.297486 -0.173597 -0.033999 0.000000 -1.000000 -0.000000 226 91 232 1
0.404641 0.573826 -0.326832 0.000000 0.118721 0.992928 223 228 22 1
-0.066139 -0.134164 -0.200906 0.000000 1.000000 0.000000 226 91 232 1
0.467635 -0.507124 0.564760 0.000000 0.067829 0.997697 159 191 89 1
-0.255854 -0.157336 -0.286681 0.000000 -0.000000 1.000000 157 83 134 1
0.442670 -0.147316 0.506789 0.000000 -0.164236 -0.986421 159 191 89 1
0.199125 0.428339 -0.299359 0.000000 -0.094108 -0.995562 52 224 7 1
-0.314724 -0.136484 -0.276290 0.000000 0.000000 -1.000000 157 83 134 1
0.049835 -0.173597 0.227390 0.000000 1.000000 0.000000 226 91 232 1
-0.133923 0.528940 -0.323788 0.000000 -0.120137 -0.992757 52 224 7 1
-0.415930 0.300177 -0.304119 0.000000 0.045255 0.998975 223 228 22 1
0.265986 0.412847 -0.313738 0.000000 0.094108 0.995562 52 224 7 1
-0.245026 0.136704 -0.300557 0.000000 -0.003665 -0.999993 52 224 7 1
0.451420 -0.018716 0.483064 0.000000 0.198591 0.980083 191 252 191 1
-0.478885 0.047886 0.485039 0.000000 0.215479 0.976509 191 252 191 1
-0.312270 0.452479 -0.301641 0.000000 0.094108 0.995562 52 224 7 1
0.341978 -0.134164 0.473906 0.000000 1.000000 0.000000 226 91 232 1
-0.350726 -0.134164 0.017294 0.000000 -1.000000 -0.000000 226 91 232 1
-0.353817 0.228095 -0.292869 0.000000 0.999993 -0.003665 52 224 7 1
0.391745 -0.494695 -0.339503 0.000000 -0.173340 0.984862 159 191 89 1
-0.006240 -0.134164 -0.113994 0.000000 1.000000 0.000000 226 91 232 1
-0.450401 0.116476 0.043847 0.000000 -1.000000 -0.000000 175 213 5 1
-0.259258 -0.152906 0.340450 0.000000 -0.000000 1.000000 226 91 232 1
-0.391733 -0.134164 -0.047079 0.000000 1.000000 0.000000 157 83 134 1
0.445631 -0.671468 0.556465 0.000000 0.025684 0.999670 159 191 89 1
0.387270 -0.305513 -0.327556 0.000000 0.121901 -0.992542 159 191 89 1
0.004177 -0.148937 0.506927 0.000000 -0.162525 -0.986704 157 83 134 1
0.126246 -0.173597 -0.206308 0.000000 1.000000 0.000000 226 91 232 1
0.325747 -0.173597 0.472475 0.000000 1.000000 0.000000 226 91 232 1
0.165366 0.410885 -0.297709 0.000000 -0.094108 -0.995562 52 224 7 1
0.299410 0.582812 -0.314418 0.000000 -0.120137 -0.992757 52 224 7 1
-0.351912 -0.150917 0.507253 0.000000 0.162525 0.986704 226 91 232 1
-0.374989 -0.173597 -0.186027 0.000000 -1.000000 -0.000000 226 91 232 1
-0.278077 -0.134164 0.315926 0.000000 1.000000 0.000000 226 91 232 1
-0.289490 -0.164280 0.192180 0.000000 0.000000 -1.000000 226 91 232 1
0.246922 0.310509 -0.292124 0.000000 0.075153 0.997172 52 224 7 1
0.370951 -0.138694 0.345404 -1.000000 0.000000 0.000000 157 83 134 1
-0.327246 -0.134164 0.271870 0.000000 -1.000000 -0.000000 226 91 232 1
-0.204690 0.649350 -0.321037 0.000000 0.132805 0.991142 10 43 224 1
-0.188532 -0.173597 0.368277 0.000000 1.000000 0.000000 226 91 232 1
-0.339027 -0.134164 0.330308 0.000000 1.000000 0.000000 226 91 232 1
-0.030997 -0.173597 0.039016 0.000000 1.000000 0.000000 226 91 232 1
-0.449944 0.132249 -0.152117 0.000000 1.000000 0.000000 175 213 5 1
0.114637 0.578489 -0.329784 0.000000 0.120137 0.992757 52 224 7 1
-0.490887 0.132249 -0.253338 0.000000 1.000000 0.000000 175 213 5 1
-0.406755 -0.457939 -0.349566 0.000000 -0.163967 0.986466 159 191 89 1
-0.373503 -0.171631 0.340450 0.000000 -0.000000 1.000000 226 91 232 1
-0.102566 -0.134164 -0.215929 0.000000 1.000000 0.000000 226 91 232 1
0.322275 -0.173597 -0.255635 0.000000 -1.000000 -0.000000 226 91 232 1
0.301815 0.340050 -0.310168 0.000000 0.075153 0.997172 52 224 7 1
0.072021 0.318569 -0.292731 0.000000 0.075153 0.997172 52 224 7 1
-0.258230 0.306928 -0.291854 0.000000 -0.075153 -0.997172 52 224 7 1
0.434044 -0.388804 0.551535 -1.000000 0.000000 0.000000 159 191 89 1
-0.091923 -0.134164 0.289733 0.000000 -1.000000 -0.000000 226 91 232 1
0.241598 -0.173597 0.129132 0.000000 -1.000000 -0.000000 226 91 232 1
-0.385749 0.209535 -0.285050 0.000000 -0.003665 -0.999993 52 224 7 1
0.177299 0.669759 -0.339686 0.000000 0.132805 0.991142 10 43 224 1
0.140763 -0.134164 0.337974 0.000000 1.000000 0.000000 226 91 232 1
-0.058798 -0.173286 0.526899 0.000000 -0.161289 -0.986907 157 83 134 1
0.332825 -0.173597 0.087272 0.000000 -1.000000 -0.000000 226 91 232 1
0.080650 0.227882 -0.300891 0.000000 -0.003665 -0.999993 52 224 7 1
0.347351 -0.173597 0.321845 0.000000 1.000000 0.000000 226 91 232 1
-0.397058 -0.134164 0.130910 0.000000 -1.000000 -0.000000 157 83 134 1
-0.479376 0.116476 0.040416 0.000000 -1.000000 -0.000000 175 213 5 1
0.472040 0.116476 0.234380 0.000000 -1.000000 -0.000000 175 213 5 1
-0.004077 -0.173597 0.061256 0.000000 -1.000000 -0.000000 226 91 232 1
-0.099440 -0.150637 0.028137 0.000000 -0.000000 1.000000 226 91 232 1
0.258224 0.273516 -0.289336 0.000000 0.075153 0.997172 52 224 7 1
0.114078 0.538154 -0.324903 0.000000 0.120137 0.992757 52 224 7 1
0.366032 -0.173597 0.477893 0.000000 -1.000000 -0.000000 157 83 134 1
-0.183020 -0.173597 0.297624 0.000000 -1.000000 -0.000000 226 91 232 1
0.081523 -0.173597 -0.028560 0.000000 1.000000 0.000000 226 91 232 1
-0.485962 0.116476 0.438776 0.000000 -1.000000 -0.000000 175 213 5 1
-0.402704 -0.410121 -0.341874 0.000000 0.150767 -0.988569 159 191 89 1
0.371162 -0.173597 0.304697 0.000000 1.000000 0.000000 157 83 134 1
-0.487531 0.132249 0.132365 0.000000 1.000000 0.000000 175 213 5 1
-0.486524 -0.241632 0.537113 0.000000 0.138460 0.990368 159 191 89 1
0.343757 0.310578 -0.307947 0.000000 -0.075153 -0.997172 52 224 7 1
0.434044 -0.455181 0.559657 -1.000000 0.000000 0.000000 159 191 89 1
0.351254 -0.164811 0.340450 0.000000 0.000000 -1.000000 226 91 232 1
-0.359832 -0.134164 -0.248987 0.000000 -1.000000 -0.000000 226 91 232 1
0.051596 -0.173245 -0.286681 0.000000 0.000000 -1.000000 157 83 134 1
0.249644 -0.134164 -0.159508 0.000000 -1.000000 -0.000000 226 91 232 1
-0.124080 0.190847 -0.300755 0.000000 0.003665 0.999993 52 224 7 1
-0.496208 0.110653 -0.299175 0.000000 -0.079564 -0.996830 73 33 5 1
0.348486 -0.134164 0.122005 0.000000 -1.000000 -0.000000 226 91 232 1
-0.070136 -0.173597 0.018467 0.000000 1.000000 0.000000 226 91 232 1
-0.306381 -0.134164 0.210572 0.000000 1.000000 0.000000 226 91 232 1
0.043479 0.345243 -0.294741 0.000000 -0.075153 -0.997172 52 224 7 1
-0.076233 0.521381 -0.306984 0.000000 -0.120137 -0.992757 52 224 7 1
-0.270462 -0.134896 0.192180 0.000000 -0.000000 1.000000 226 91 232 1
0.263246 0.470403 -0.314446 0.000000 -0.995562 0.094108 52 224 7 1
0.050225 -0.173597 0.397732 0.000000 1.000000 0.000000 226 91 232 1
-0.135276 0.660994 -0.322597 0.000000 0.132805 0.991142 10 43 224 1
0.313822 0.644254 -0.320889 0.000000 1.000000 0.000000 10 43 224 1
0.287778 -0.173597 -0.289632 0.000000 -1.000000 -0.000000 157 83 134 1
0.250804 -0.134164 0.454935 0.000000 1.000000 0.000000 226 91 232 1
0.464510 0.132249 -0.187059 0.000000 -1.000000 -0.000000 175 213 5 1
-0.361467 0.464481 -0.318619 0.000000 -0.094108 -0.995562 52 224 7 1
-0.054514 -0.134164 -0.011553 0.000000 -1.000000 -0.000000 226 91 232 1
-0.120778 -0.134164 -0.242680 0.000000 -1.000000 -0.000000 226 91 232 1
-0.082614 -0.134164 0.064034 0.000000 -1.000000 -0.000000 226 91 232 1
-0.195300 0.311537 -0.292201 0.000000 0.075153 0.997172 52 224 7 1
-0.396878 0.572294 -0.329034 0.000000 0.120137 0.992757 52 224 7 1
-0.018381 -0.134164 0.256994 0.000000 -1.000000 -0.000000 226 91 232 1
-0.098558 0.455238 -0.301901 0.000000 -0.094108 -0.995562 52 224 7 1
0.370459 -0.134164 0.304866 0.000000 1.000000 0.000000 157 83 134 1
-0.265532 0.654377 -0.321711 0.000000 -0.132805 -0.991142 10 43 224 1
0.095913 0.327401 -0.309215 0.000000 0.075153 0.997172 52 224 7 1
0.176451 -0.134191 0.184293 0.000000 0.000000 -1.000000 226 91 232 1
-0.225347 -0.134164 0.408689 0.000000 -1.000000 -0.000000 226 91 232 1
-0.030929 0.136219 -0.300555 0.000000 0.003665 0.999993 52 224 7 1
-0.006802 -0.134164 -0.055001 0.000000 1.000000 0.000000 226 91 232 1
0.217029 0.154154 -0.284847 0.000000 0.003665 0.999993 52 224 7 1
-0.281536 -0.151173 0.523285 0.000000 0.161289 0.986907 157 83 134 1
-0.206697 -0.134164 0.394247 0.000000 1.000000 0.000000 226 91 232 1
0.335585 -0.155181 -0.276290 0.000000 -0.000000 1.000000 226 91 232 1
-0.047351 0.563338 -0.327950 0.000000 0.120137 0.992757 52 224 7 1
-0.061412 -0.173597 -0.234255 0.000000 1.000000 0.000000 226 91 232 1
-0.020313 -0.173597 0.493937 0.000000 -1.000000 -0.000000 226 91 232 1
-0.323438 -0.134164 0.424454 0.000000 -1.000000 -0.000000 226 91 232 1
0.307604 -0.134164 0.352017 0.000000 -1.000000 -0.000000 226 91 232 1
-0.267344 0.150743 -0.300608 0.000000 -0.003665 -0.999993 52 224 7 1
0.480772 0.116476 0.179790 0.000000 -1.000000 -0.000000 175 213 5 1
-0.185279 -0.134164 -0.159560 0.000000 -1.000000 -0.000000 226 91 232 1
-0.452666 0.116476 0.411404 0.000000 -1.000000 -0.000000 175 213 5 1
-0.077332 -0.173597 0.452842 0.000000 1.000000 0.000000 226 91 232 1
-0.496587 0.131676 0.301745 -1.000000 0.000000 0.000000 175 213 5 1
0.220734 -0.160238 -0.286681 0.000000 -0.000000 1.000000 157 83 134 1
-0.251448 0.298172 -0.307012 0.000000 0.075153 0.997172 52 224 7 1
0.032851 -0.173597 0.124129 0.000000 -1.000000 -0.000000 226 91 232 1
0.363710 0.661660 -0.322687 0.000000 0.132805 0.991142 10 43 224 1
0.074119 -0.158229 -0.302455 0.000000 -0.000000 1.000000 157 83 134 1
-0.348060 -0.173597 0.496595 0.000000 1.000000 0.000000 226 91 232 1
0.386724 -0.154551 0.425404 -1.000000 0.000000 0.000000 157 83 134 1
0.474308 -0.320055 0.547212 0.000000 0.117598 0.993061 159 191 89 1
-0.123372 -0.134164 -0.207413 0.000000 -1.000000 -0.000000 226 91 232 1
-0.261237 0.324517 -0.293179 0.000000 -0.075153 -0.997172 52 224 7 1
-0.030399 0.459020 -0.318103 0.000000 -0.094108 -0.995562 52 224 7 1
